770.2530639055932 661 -104.16947184634724
770.2530639055932 662 -104.16947184634724
770.2530639055932 663 -104.16947184634724
770.2530639055932 664 -104.16947184634724
770.2530639055932 665 -104.16947184634724
770.2530639055932 666 -104.16947184634724
770.2530639055932 667 -104.16947184634724
771.9522683785693 668 -105.9350561149294
771.9522683785693 669 -105.9350561149294
771.9522683785693 670 -105.9350561149294
771.9522683785693 671 -105.9350561149294
771.9522683785693 672 -105.9350561149294
771.9522683785693 673 -105.9350561149294
771.9522683785693 674 -105.9350561149294
771.9522683785693 675 -105.9350561149294
771.9522683785693 676 -105.9350561149294
773.6514728515456 677 -107.70064038351154
773.6514728515456 678 -107.70064038351154
773.6514728515456 679 -107.70064038351154
773.6514728515456 680 -107.70064038351154
773.6514728515456 681 -107.70064038351154
773.6514728515456 682 -107.70064038351154
773.6514728515456 683 -107.70064038351154
773.6514728515456 684 -107.70064038351154
773.6514728515456 685 -107.70064038351154
773.6514728515456 686 -107.70064038351154
778.749086270474 740 -112.99739318925802
778.749086270474 741 -112.99739318925802
778.749086270474 742 -112.99739318925802
778.749086270474 743 -112.99739318925802
778.749086270474 744 -112.99739318925802
778.749086270474 745 -112.99739318925802
778.749086270474 746 -112.99739318925802
778.749086270474 747 -112.99739318925802
778.749086270474 748 -112.99739318925802
780.4482907434501 749 -114.76297745784017
780.4482907434501 750 -114.76297745784017
752.2084279984056 568 -77.11986365636771
753.9955677375013 569 -78.79638243150613
753.9955677375013 570 -78.79638243150613
752.2084279984056 571 -77.11986365636771
753.9955677375013 572 -78.79638243150613
753.9955677375013 573 -78.79638243150613
753.9955677375013 574 -78.79638243150613
753.9955677375013 575 -78.79638243150613
753.9955677375013 576 -78.79638243150613
753.9955677375013 577 -78.79638243150613
753.9955677375013 578 -78.79638243150613
753.9955677375013 579 -78.79638243150613
755.7827074765971 580 -80.47290120664456
755.7827074765971 581 -80.47290120664456
753.9955677375013 582 -78.79638243150613
753.9955677375013 583 -78.79638243150613
753.9955677375013 584 -78.79638243150613
753.9955677375013 585 -78.79638243150613
753.9955677375013 586 -78.79638243150613
753.9955677375013 587 -78.79638243150613
753.9955677375013 588 -78.79638243150613
766.5055459111718 615 -90.53201385747514
766.5055459111718 616 -90.53201385747514
766.5055459111718 617 -90.53201385747514
766.5055459111718 618 -90.53201385747514
766.5055459111718 619 -90.53201385747514
768.2926856502675 620 -92.20853263261355
768.2926856502675 621 -92.20853263261355
777.2283843457465 664 -100.5911265083057
777.2283843457465 665 -100.5911265083057
777.2283843457465 666 -100.5911265083057
777.2283843457465 667 -100.5911265083057
779.0155240848421 668 -102.26764528344412
779.0155240848421 669 -102.26764528344412
779.0155240848421 670 -102.26764528344412
777.2283843457465 671 -100.5911265083057
777.2283843457465 672 -100.5911265083057
779.0155240848421 673 -102.26764528344412
779.0155240848421 674 -102.26764528344412
779.0155240848421 675 -102.26764528344412
779.0155240848421 676 -102.26764528344412
779.0155240848421 677 -102.26764528344412
779.0155240848421 678 -102.26764528344412
779.0155240848421 679 -102.26764528344412
779.0155240848421 680 -102.26764528344412
779.0155240848421 681 -102.26764528344412
757.9093903993808 578 -74.4047334747367
759.7798029610698 579 -75.98781291036941
759.7798029610698 580 -75.98781291036941
759.7798029610698 581 -75.98781291036941
759.7798029610698 582 -75.98781291036941
759.7798029610698 583 -75.98781291036941
759.7798029610698 584 -75.98781291036941
759.7798029610698 585 -75.98781291036941
759.7798029610698 586 -75.98781291036941
759.7798029610698 587 -75.98781291036941
759.7798029610698 588 -75.98781291036941
759.7798029610698 589 -75.98781291036941
759.7798029610698 590 -75.98781291036941
782.2247537013371 662 -94.98476613796176
782.2247537013371 663 -94.98476613796176
782.2247537013371 664 -94.98476613796176
784.0951662630262 665 -96.56784557359445
784.0951662630262 666 -96.56784557359445
784.0951662630262 667 -96.56784557359445
784.0951662630262 668 -96.56784557359445
784.0951662630262 669 -96.56784557359445
784.0951662630262 670 -96.56784557359445
784.0951662630262 671 -96.56784557359445
784.0951662630262 672 -96.56784557359445
785.9655788247151 673 -98.15092500922715
785.9655788247151 674 -98.15092500922715
785.9655788247151 675 -98.15092500922715
785.9655788247151 676 -98.15092500922715
785.9655788247151 677 -98.15092500922715
785.9655788247151 678 -98.15092500922715
785.9655788247151 679 -98.15092500922715
785.9655788247151 680 -98.15092500922715
785.9655788247151 681 -98.15092500922715
785.9655788247151 682 -98.15092500922715
785.9655788247151 683 -98.15092500922715
785.9655788247151 684 -98.15092500922715
785.9655788247151 685 -98.15092500922715
785.9655788247151 686 -98.15092500922715
785.9655788247151 687 -98.15092500922715
785.9655788247151 688 -98.15092500922715
779.1331187222926 622 -83.18856126744632
779.1331187222926 623 -83.18856126744632
779.1331187222926 624 -83.18856126744632
779.1331187222926 625 -83.18856126744632
779.1331187222926 626 -83.18856126744632
767.0615012662075 569 -66.43512401267718
767.0615012662075 570 -66.43512401267718
767.0615012662075 571 -66.43512401267718
767.0615012662075 573 -66.43512401267718
767.0615012662075 574 -66.43512401267718
767.0615012662075 575 -66.43512401267718
769.0836158759203 576 -67.81918909627463
767.0615012662075 577 -66.43512401267718
767.0615012662075 578 -66.43512401267718
793.3489911924721 659 -84.42797009944391
793.3489911924721 660 -84.42797009944391
793.3489911924721 661 -84.42797009944391
799.5891798329017 671 -79.29857516093202
799.5891798329017 672 -79.29857516093202
801.6793278947227 673 -80.57758443772126
801.6793278947227 674 -80.57758443772126
801.6793278947227 675 -80.57758443772126
801.6793278947227 676 -80.57758443772126
803.4691704897276 666 -72.57823421041698
805.6218990460136 667 -73.74885089123018
805.6218990460136 668 -73.74885089123018
805.6218990460136 669 -73.74885089123018
805.6218990460136 670 -73.74885089123018
805.6218990460136 671 -73.74885089123018
805.6218990460136 672 -73.74885089123018
805.6218990460136 673 -73.74885089123018
805.6218990460136 674 -73.74885089123018
805.6218990460136 675 -73.74885089123018
805.6218990460136 676 -73.74885089123018
805.6218990460136 677 -73.74885089123018
807.7746276022995 693 -74.91946757204335
807.7746276022995 694 -74.91946757204335
807.7746276022995 695 -74.91946757204335
807.7746276022995 696 -74.91946757204335
809.210648147793 664 -66.72771501329407
807.0009553200503 665 -65.66854493371797
807.0009553200503 666 -65.66854493371797
809.210648147793 667 -66.72771501329407
809.210648147793 668 -66.72771501329407
809.210648147793 669 -66.72771501329407
809.210648147793 670 -66.72771501329407
809.210648147793 671 -66.72771501329407
811.4203409755357 672 -67.78688509287016
811.4203409755357 673 -67.78688509287016
811.4203409755357 674 -67.78688509287016
811.4203409755357 675 -67.78688509287016
811.4203409755357 676 -67.78688509287016
811.4203409755357 677 -67.78688509287016
811.4203409755357 678 -67.78688509287016
811.4203409755357 679 -67.78688509287016
811.4203409755357 680 -67.78688509287016
811.4203409755357 681 -67.78688509287016
811.4203409755357 682 -67.78688509287016
811.4203409755357 683 -67.78688509287016
811.4203409755357 684 -67.78688509287016
811.4203409755357 685 -67.78688509287016
811.4203409755357 686 -67.78688509287016
811.4203409755357 687 -67.78688509287016
771.7401518310087 544 -42.52321010411147
771.7401518310087 545 -42.52321010411147
814.6971048263234 670 -60.477454370291866
814.6971048263234 671 -60.477454370291866
814.6971048263234 672 -60.477454370291866
814.6971048263234 673 -60.477454370291866
814.6971048263234 674 -60.477454370291866
814.6971048263234 675 -60.477454370291866
814.6971048263234 676 -60.477454370291866
814.6971048263234 677 -60.477454370291866
814.6971048263234 678 -60.477454370291866
814.6971048263234 679 -60.477454370291866
814.6971048263234 680 -60.477454370291866
814.6971048263234 681 -60.477454370291866
816.9579970892347 682 -61.42241459482767
816.9579970892347 683 -61.42241459482767
816.9579970892347 684 -61.42241459482767
816.9579970892347 685 -61.42241459482767
819.2188893521461 686 -62.36737481936349
819.2188893521461 687 -62.36737481936349
819.2188893521461 688 -62.36737481936349
816.9579970892347 689 -61.42241459482767
816.9579970892347 690 -61.42241459482767
816.9579970892347 691 -61.42241459482767
817.5963704519119 672 -53.010244874484044
817.5963704519119 673 -53.010244874484044
817.5963704519119 674 -53.010244874484044
817.5963704519119 675 -53.010244874484044
817.5963704519119 676 -53.010244874484044
817.5963704519119 677 -53.010244874484044
822.2087570285341 689 -54.666815026811676
822.2087570285341 690 -54.666815026811676
822.2087570285341 691 -54.666815026811676
766.2241121718838 491 -18.661566854041872
768.6297149761808 492 -19.12810602539292
768.6297149761808 493 -19.12810602539292
768.6297149761808 494 -19.12810602539292
768.6297149761808 495 -19.12810602539292
809.5249626492315 633 -27.059271938360716
809.5249626492315 634 -27.059271938360716
811.9305654535285 635 -27.525811109711768
811.9305654535285 636 -27.525811109711768
811.9305654535285 637 -27.525811109711768
811.9305654535285 638 -27.525811109711768
811.9305654535285 639 -27.525811109711768
811.9305654535285 640 -27.525811109711768
814.3361682578256 641 -27.992350281062812
814.3361682578256 642 -27.992350281062812
769.4777505976797 495 -14.067062679435923
813.9977889619281 718 -12.907070205198252
816.4384294528081 719 -13.125834106981273
816.4384294528081 720 -13.125834106981273
813.9977889619281 721 -12.907070205198252
813.9977889619281 722 -12.907070205198252
816.4384294528081 723 -13.125834106981273
772.9094659461387 456 1.3142975572438542
772.9094659461387 457 1.3142975572438542
772.9094659461387 458 1.3142975572438542
772.9094659461387 459 1.3142975572438542
819.463748159868 716 1.9088607379017881
819.463748159868 717 1.9088607379017881
780.0444117239173 502 7.036287408291977
780.0444117239173 503 7.036287408291977
782.4898430955599 504 7.192649350698466
782.4898430955599 505 7.192649350698466
782.4898430955599 506 7.192649350698466
782.4898430955599 507 7.192649350698466
819.171313670199 713 9.538078486795792
819.171313670199 714 9.538078486795792
781.9758455695819 502 12.927065147314742
781.9758455695819 503 12.927065147314742
781.9758455695819 504 12.927065147314742
781.9758455695819 505 12.927065147314742
781.9758455695819 506 12.927065147314742
784.4101030819642 507 13.20808830269115
784.4101030819642 508 13.20808830269115
784.4101030819642 509 13.20808830269115
784.4101030819642 510 13.20808830269115
784.4101030819642 511 13.20808830269115
769.8045580076708 574 11.521949370432706
769.8045580076708 575 11.521949370432706
769.8045580076708 576 11.521949370432706
769.8045580076708 577 11.521949370432706
772.2388155200531 578 11.802972525809114
772.2388155200531 579 11.802972525809114
783.5864488009543 504 19.03270691797486
783.5864488009543 505 19.03270691797486
783.5864488009543 506 19.03270691797486
783.5864488009543 507 19.03270691797486
783.5864488009543 508 19.03270691797486
783.5864488009543 509 19.03270691797486
783.5864488009543 510 19.03270691797486
783.5864488009543 511 19.03270691797486
819.8374430991312 656 25.10697508328598
822.254176052343 657 25.51192629430673
822.254176052343 658 25.51192629430673
822.254176052343 659 25.51192629430673
822.254176052343 660 25.51192629430673
784.8593638578539 508 25.33549416922691
784.8593638578539 509 25.33549416922691
784.8593638578539 510 25.33549416922691
784.8593638578539 511 25.33549416922691
784.8593638578539 512 25.33549416922691
784.8593638578539 513 25.33549416922691
820.7529150634333 649 33.25283609711032
820.7529150634333 650 33.25283609711032
820.7529150634333 651 33.25283609711032
818.360011649728 652 32.72501330191809
818.360011649728 653 32.72501330191809
820.7529150634333 654 33.25283609711032
820.7529150634333 655 33.25283609711032
820.7529150634333 656 33.25283609711032
820.7529150634333 657 33.25283609711032
759.7875803715973 404 24.67405929836793
759.7875803715973 405 24.67405929836793
762.1504114340078 406 25.32337664832498
762.1504114340078 407 25.32337664832498
762.1504114340078 408 25.32337664832498
778.6902288708809 450 29.868598098024336
778.6902288708809 451 29.868598098024336
778.6902288708809 452 29.868598098024336
778.6902288708809 453 29.868598098024336
778.6902288708809 454 29.868598098024336
778.6902288708809 456 29.868598098024336
778.6902288708809 457 29.868598098024336
778.6902288708809 458 29.868598098024336
778.6902288708809 459 29.868598098024336
778.6902288708809 460 29.868598098024336
778.6902288708809 461 29.868598098024336
776.3273978084704 484 29.219280748067284
776.3273978084704 485 29.219280748067284
776.3273978084704 486 29.219280748067284
776.3273978084704 487 29.219280748067284
783.4158909957018 504 31.16723279793844
783.4158909957018 505 31.16723279793844
783.4158909957018 507 31.16723279793844
783.4158909957018 508 31.16723279793844
783.4158909957018 509 31.16723279793844
783.4158909957018 510 31.16723279793844
783.4158909957018 511 31.16723279793844
785.7787220581123 512 31.81655014789549
785.7787220581123 513 31.81655014789549
785.7787220581123 514 31.81655014789549
785.7787220581123 515 31.81655014789549
816.4955258694482 643 40.25767569733715
816.4955258694482 644 40.25767569733715
816.4955258694482 645 40.25767569733715
816.4955258694482 646 40.25767569733715
818.8583569318587 647 40.9069930472942
818.8583569318587 648 40.9069930472942
818.8583569318587 649 40.9069930472942
818.8583569318587 650 40.9069930472942
818.8583569318587 651 40.9069930472942
818.8583569318587 652 40.9069930472942
758.4105854770116 405 29.226480575967848
758.4105854770116 406 29.226480575967848
760.7371798316699 407 29.99559848586174
760.7371798316699 408 29.99559848586174
760.7371798316699 409 29.99559848586174
760.7371798316699 410 29.99559848586174
760.7371798316699 411 29.99559848586174
760.7371798316699 412 29.99559848586174
760.7371798316699 413 29.99559848586174
777.0233403142773 458 35.37942385511898
777.0233403142773 459 35.37942385511898
777.0233403142773 460 35.37942385511898
777.0233403142773 461 35.37942385511898
777.0233403142773 462 35.37942385511898
774.6967459596191 486 34.610305945225086
777.0233403142773 487 35.37942385511898
777.0233403142773 488 35.37942385511898
777.0233403142773 489 35.37942385511898
781.6765290235937 500 36.91765967490676
781.6765290235937 501 36.91765967490676
781.6765290235937 502 36.91765967490676
781.6765290235937 503 36.91765967490676
781.6765290235937 504 36.91765967490676
781.6765290235937 505 36.91765967490676
781.6765290235937 506 36.91765967490676
781.6765290235937 507 36.91765967490676
781.6765290235937 510 36.91765967490676
781.6765290235937 511 36.91765967490676
784.003123378252 512 37.68677758480065
784.003123378252 513 37.68677758480065
784.003123378252 514 37.68677758480065
784.003123378252 515 37.68677758480065
784.003123378252 516 37.68677758480065
784.003123378252 517 37.68677758480065
784.003123378252 518 37.68677758480065
784.003123378252 519 37.68677758480065
784.003123378252 520 37.68677758480065
784.003123378252 521 37.68677758480065
816.5754443434668 635 48.45442832331512
816.5754443434668 636 48.45442832331512
816.5754443434668 637 48.45442832331512
816.5754443434668 638 48.45442832331512
814.2488499888086 639 47.68531041342123
816.5754443434668 640 48.45442832331512
816.5754443434668 641 48.45442832331512
816.5754443434668 642 48.45442832331512
816.5754443434668 643 48.45442832331512
816.5754443434668 644 48.45442832331512
772.7929522546724 441 39.91103680592322
772.7929522546724 442 39.91103680592322
772.7929522546724 443 39.91103680592322
772.7929522546724 444 39.91103680592322
772.7929522546724 445 39.91103680592322
779.6458157383172 499 42.57177259298477
779.6458157383172 500 42.57177259298477
811.6258453286597 633 54.98853959927199
811.6258453286597 634 54.98853959927199
813.9101331565413 635 55.875451528292515
813.9101331565413 636 55.875451528292515
811.6258453286597 637 54.98853959927199
811.6258453286597 638 54.98853959927199
757.2768942544542 414 44.61028547332953
757.2768942544542 415 44.61028547332953
772.5503507489838 437 52.41708543116221
772.5503507489838 438 52.41708543116221
754.8852188577986 416 49.008503957770266
754.8852188577986 417 49.008503957770266
771.8622626293583 440 58.81020474932432
771.8622626293583 441 58.81020474932432
759.3748576304365 383 64.58650567799994
759.3748576304365 384 64.58650567799994
755.9604478926415 383 69.06578957958551
755.9604478926415 384 69.06578957958551
754.0502157172494 385 67.53099425559473
754.0502157172494 386 67.53099425559473
741.3761437764081 733 120.05972838513219
741.3761437764081 734 120.05972838513219
741.3761437764081 735 120.05972838513219
741.3761437764081 736 120.05972838513219
730.8210437948331 737 131.15927843241926
730.8210437948331 738 131.15927843241926
730.8210437948331 739 131.15927843241926
642.8224562949505 677 94.17385496450312
642.8224562949505 678 94.17385496450312
642.8224562949505 679 94.17385496450312
639.646868139876 656 88.0301435732519
639.646868139876 657 88.0301435732519
638.848101511978 658 90.3467262988638
638.848101511978 659 90.3467262988638
638.848101511978 660 90.3467262988638
638.0493348840799 664 92.66330902447568
638.0493348840799 665 92.66330902447568
638.0493348840799 666 92.66330902447568
638.0493348840799 667 92.66330902447568
638.0493348840799 668 92.66330902447568
638.0493348840799 669 92.66330902447568
638.0493348840799 670 92.66330902447568
638.0493348840799 671 92.66330902447568
638.0493348840799 672 92.66330902447568
638.0493348840799 673 92.66330902447568
637.250568256182 674 94.97989175008757
637.250568256182 675 94.97989175008757
637.250568256182 676 94.97989175008757
637.250568256182 677 94.97989175008757
637.250568256182 678 94.97989175008757
637.250568256182 679 94.97989175008757
636.451801628284 680 97.29647447569948
636.451801628284 681 97.29647447569948
637.250568256182 682 94.97989175008757
637.250568256182 683 94.97989175008757
636.1076014271378 635 84.09268895950551
636.1076014271378 636 84.09268895950551
636.1076014271378 637 84.09268895950551
636.1076014271378 638 84.09268895950551
636.1076014271378 639 84.09268895950551
636.1076014271378 640 84.09268895950551
635.1915906548982 641 86.36546433678944
635.1915906548982 642 86.36546433678944
635.1915906548982 643 86.36546433678944
635.1915906548982 644 86.36546433678944
635.1915906548982 645 86.36546433678944
635.1915906548982 646 86.36546433678944
635.1915906548982 647 86.36546433678944
635.1915906548982 648 86.36546433678944
635.1915906548982 649 86.36546433678944
634.2755798826587 650 88.63823971407338
634.2755798826587 651 88.63823971407338
635.1915906548982 652 86.36546433678944
635.1915906548982 653 86.36546433678944
634.2755798826587 654 88.63823971407338
634.2755798826587 655 88.63823971407338
634.2755798826587 656 88.63823971407338
634.2755798826587 657 88.63823971407338
634.2755798826587 658 88.63823971407338
633.3595691104192 659 90.9110150913573
633.3595691104192 660 90.9110150913573
633.3595691104192 661 90.9110150913573
633.3595691104192 662 90.9110150913573
633.3595691104192 663 90.9110150913573
633.3595691104192 664 90.9110150913573
633.3595691104192 665 90.9110150913573
633.3595691104192 666 90.9110150913573
633.3595691104192 667 90.9110150913573
633.3595691104192 668 90.9110150913573
633.3595691104192 669 90.9110150913573
633.3595691104192 670 90.9110150913573
633.3595691104192 671 90.9110150913573
633.3595691104192 672 90.9110150913573
633.3595691104192 673 90.9110150913573
633.3595691104192 674 90.9110150913573
632.4435583381796 675 93.18379046864125
632.4435583381796 676 93.18379046864125
632.4435583381796 677 93.18379046864125
632.4435583381796 678 93.18379046864125
632.4435583381796 679 93.18379046864125
631.5275475659402 680 95.45656584592518
632.8888546336611 624 80.02939022995074
632.8888546336611 625 80.02939022995074
632.8888546336611 626 80.02939022995074
632.8888546336611 627 80.02939022995074
632.8888546336611 628 80.02939022995074
632.8888546336611 629 80.02939022995074
632.8888546336611 630 80.02939022995074
632.8888546336611 631 80.02939022995074
631.8579894845961 634 82.25242884744937
631.8579894845961 635 82.25242884744937
631.8579894845961 636 82.25242884744937
631.8579894845961 637 82.25242884744937
631.8579894845961 638 82.25242884744937
631.8579894845961 639 82.25242884744937
631.8579894845961 640 82.25242884744937
631.8579894845961 641 82.25242884744937
631.8579894845961 642 82.25242884744937
631.8579894845961 643 82.25242884744937
630.8271243355313 644 84.475467464948
630.8271243355313 645 84.475467464948
630.8271243355313 646 84.475467464948
630.8271243355313 647 84.475467464948
629.7962591864663 648 86.69850608244663
629.7962591864663 649 86.69850608244663
629.7962591864663 650 86.69850608244663
629.7962591864663 651 86.69850608244663
629.7962591864663 652 86.69850608244663
629.7962591864663 653 86.69850608244663
629.7962591864663 654 86.69850608244663
629.7962591864663 655 86.69850608244663
628.7653940374013 656 88.92154469994526
628.7653940374013 657 88.92154469994526
629.7962591864663 658 86.69850608244663
629.7962591864663 659 86.69850608244663
628.7653940374013 660 88.92154469994526
628.7653940374013 661 88.92154469994526
629.7962591864663 662 86.69850608244663
629.7962591864663 663 86.69850608244663
628.7653940374013 664 88.92154469994526
628.7653940374013 665 88.92154469994526
628.7653940374013 666 88.92154469994526
628.7653940374013 667 88.92154469994526
628.7653940374013 668 88.92154469994526
628.7653940374013 669 88.92154469994526
628.7653940374013 670 88.92154469994526
628.7653940374013 671 88.92154469994526
628.8509158089124 600 78.03007933620249
628.8509158089124 601 78.03007933620249
628.8509158089124 602 78.03007933620249
628.8509158089124 603 78.03007933620249
628.8509158089124 604 78.03007933620249
628.8509158089124 605 78.03007933620249
628.8509158089124 622 78.03007933620249
628.8509158089124 623 78.03007933620249
628.8509158089124 624 78.03007933620249
628.8509158089124 625 78.03007933620249
628.8509158089124 626 78.03007933620249
627.7078856924933 627 80.19758153998589
627.7078856924933 628 80.19758153998589
627.7078856924933 629 80.19758153998589
627.7078856924933 630 80.19758153998589
627.7078856924933 631 80.19758153998589
627.7078856924933 632 80.19758153998589
627.7078856924933 633 80.19758153998589
627.7078856924933 634 80.19758153998589
627.7078856924933 635 80.19758153998589
627.7078856924933 636 80.19758153998589
626.5648555760743 637 82.36508374376929
626.5648555760743 638 82.36508374376929
626.5648555760743 639 82.36508374376929
626.5648555760743 640 82.36508374376929
626.5648555760743 641 82.36508374376929
626.5648555760743 642 82.36508374376929
626.5648555760743 643 82.36508374376929
625.4218254596551 644 84.53258594755269
625.4218254596551 645 84.53258594755269
625.4218254596551 646 84.53258594755269
625.4218254596551 647 84.53258594755269
625.4218254596551 648 84.53258594755269
625.4218254596551 649 84.53258594755269
625.4218254596551 650 84.53258594755269
625.4218254596551 651 84.53258594755269
625.4218254596551 652 84.53258594755269
625.4218254596551 653 84.53258594755269
624.2787953432361 654 86.70008815133609
624.9203302464791 607 75.82719687482033
624.9203302464791 616 75.82719687482033
624.9203302464791 617 75.82719687482033
624.9203302464791 618 75.82719687482033
623.6681171977702 619 77.9335078991209
623.6681171977702 620 77.9335078991209
623.6681171977702 621 77.9335078991209
623.6681171977702 622 77.9335078991209
623.6681171977702 623 77.9335078991209
623.6681171977702 624 77.9335078991209
623.6681171977702 625 77.9335078991209
623.6681171977702 626 77.9335078991209
622.4159041490612 627 80.03981892342146
623.6681171977702 628 77.9335078991209
622.4159041490612 629 80.03981892342146
622.4159041490612 630 80.03981892342146
622.4159041490612 631 80.03981892342146
622.4159041490612 632 80.03981892342146
622.4159041490612 633 80.03981892342146
622.4159041490612 634 80.03981892342146
622.4159041490612 635 80.03981892342146
622.4159041490612 636 80.03981892342146
622.4159041490612 637 80.03981892342146
622.4159041490612 638 80.03981892342146
622.4159041490612 639 80.03981892342146
622.4159041490612 640 80.03981892342146
621.1636911003524 641 82.14612994772203
621.1636911003524 642 82.14612994772203
621.1636911003524 643 82.14612994772203
621.1636911003524 644 82.14612994772203
621.1636911003524 645 82.14612994772203
621.1636911003524 646 82.14612994772203
619.7492232951752 612 75.46611463447508
619.7492232951752 613 75.46611463447508
619.7492232951752 614 75.46611463447508
619.7492232951752 615 75.46611463447508
619.7492232951752 618 75.46611463447508
619.7492232951752 619 75.46611463447508
619.7492232951752 620 75.46611463447508
619.7492232951752 621 75.46611463447508
619.7492232951752 622 75.46611463447508
619.7492232951752 623 75.46611463447508
618.3910941950448 624 77.50573935432574
618.3910941950448 625 77.50573935432574
618.3910941950448 626 77.50573935432574
618.3910941950448 627 77.50573935432574
618.3910941950448 628 77.50573935432574
618.3910941950448 629 77.50573935432574
618.3910941950448 630 77.50573935432574
618.3910941950448 631 77.50573935432574
618.3910941950448 632 77.50573935432574
618.3910941950448 633 77.50573935432574
618.3910941950448 634 77.50573935432574
618.3910941950448 635 77.50573935432574
617.0329650949144 636 79.54536407417643
617.0329650949144 637 79.54536407417643
617.0329650949144 638 79.54536407417643
617.0329650949144 639 79.54536407417643
617.0329650949144 640 79.54536407417643
617.0329650949144 641 79.54536407417643
617.0329650949144 642 79.54536407417643
617.0329650949144 643 79.54536407417643
617.0329650949144 644 79.54536407417643
604.8098031937408 719 97.90198655283253
604.8098031937408 720 97.90198655283253
617.4219298792455 594 70.83422162596467
617.4219298792455 595 70.83422162596467
617.4219298792455 596 70.83422162596467
615.9614279314467 623 72.80183889335258
614.5009259836479 624 74.76945616074048
614.5009259836479 625 74.76945616074048
614.5009259836479 626 74.76945616074048
614.5009259836479 627 74.76945616074048
614.5009259836479 628 74.76945616074048
614.5009259836479 629 74.76945616074048
613.0404240358492 630 76.7370734281284
613.0404240358492 631 76.7370734281284
613.0404240358492 632 76.7370734281284
613.0404240358492 633 76.7370734281284
613.0404240358492 634 76.7370734281284
613.0404240358492 635 76.7370734281284
599.8959065056606 718 94.44562883461955
613.8736775448473 595 68.05715494082519
613.8736775448473 596 68.05715494082519
610.755548519561 624 71.83810799309325
610.755548519561 625 71.83810799309325
610.755548519561 626 71.83810799309325
610.755548519561 627 71.83810799309325
610.755548519561 628 71.83810799309325
610.755548519561 629 71.83810799309325
609.1964840069179 630 73.72858451922728
609.1964840069179 631 73.72858451922728
609.1964840069179 632 73.72858451922728
609.1964840069179 633 73.72858451922728
609.1964840069179 634 73.72858451922728
608.8182927211319 605 66.91093865658137
608.8182927211319 606 66.91093865658137
608.8182927211319 607 66.91093865658137
608.8182927211319 608 66.91093865658137
608.8182927211319 609 66.91093865658137
608.8182927211319 610 66.91093865658137
608.8182927211319 611 66.91093865658137
608.8182927211319 612 66.91093865658137
605.5111734087607 625 70.52774615153172
605.5111734087607 626 70.52774615153172
605.5111734087607 627 70.52774615153172
605.5111734087607 628 70.52774615153172
605.5111734087607 629 70.52774615153172
605.5111734087607 630 70.52774615153172
605.5111734087607 631 70.52774615153172
603.857613752575 632 72.33614989900688
603.857613752575 633 72.33614989900688
603.857613752575 634 72.33614989900688
603.857613752575 635 72.33614989900688
600.250365944559 630 68.86452199679613
600.250365944559 631 68.86452199679613
600.250365944559 632 68.86452199679613
598.6544597936908 619 63.58290355905231
596.825086967888 620 65.21323441954083
596.825086967888 621 65.21323441954083
596.825086967888 622 65.21323441954083
596.825086967888 623 65.21323441954083
596.825086967888 624 65.21323441954083
596.825086967888 625 65.21323441954083
596.825086967888 630 65.21323441954083
596.825086967888 632 65.21323441954083
596.825086967888 633 65.21323441954083
596.825086967888 634 65.21323441954083
596.825086967888 635 65.21323441954083
582.1901043614655 670 78.255881303449
582.1901043614655 671 78.255881303449
593.5907129843188 624 61.39181295963156
593.5907129843188 625 61.39181295963156
593.5907129843188 626 61.39181295963156
593.5907129843188 627 61.39181295963156
593.5907129843188 628 61.39181295963156
591.6804808089266 629 62.92660828362235
591.6804808089266 630 62.92660828362235
591.6804808089266 631 62.92660828362235
591.6804808089266 632 62.92660828362235
591.6804808089266 633 62.92660828362235
591.6804808089266 634 62.92660828362235
591.6804808089266 635 62.92660828362235
591.6804808089266 636 62.92660828362235
591.6804808089266 637 62.92660828362235
591.6804808089266 638 62.92660828362235
576.3986234057904 672 75.20497087554867
576.3986234057904 673 75.20497087554867
576.3986234057904 674 75.20497087554867
576.3986234057904 675 75.20497087554867
561.1167660026542 765 87.48333346747498
561.1167660026542 766 87.48333346747498
561.1167660026542 767 87.48333346747498
561.1167660026542 768 87.48333346747498
559.2065338272621 769 89.01812879146576
559.2065338272621 770 89.01812879146576
559.2065338272621 771 89.01812879146576
559.2065338272621 772 89.01812879146576
559.2065338272621 773 89.01812879146576
590.5556821062787 625 57.410227269333355
590.5556821062787 626 57.410227269333355
590.5556821062787 627 57.410227269333355
590.5556821062787 628 57.410227269333355
590.5556821062787 629 57.410227269333355
590.5556821062787 630 57.410227269333355
590.5556821062787 631 57.410227269333355
588.5695741589357 632 58.84548295106669
588.5695741589357 633 58.84548295106669
588.5695741589357 634 58.84548295106669
588.5695741589357 635 58.84548295106669
588.5695741589357 636 58.84548295106669
586.5834662115927 637 60.28073863280003
586.5834662115927 638 60.28073863280003
586.5834662115927 639 60.28073863280003
572.6807105801914 672 70.32752840493337
572.6807105801914 673 70.32752840493337
556.7918470014472 766 81.80957385880004
556.7918470014472 767 81.80957385880004
556.7918470014472 768 81.80957385880004
554.8057390541042 769 83.24482954053337
554.8057390541042 770 83.24482954053337
585.6711101923634 630 54.61083647237819
585.6711101923634 631 54.61083647237819
583.6143080019332 632 55.94280809365571
583.6143080019332 633 55.94280809365571
583.6143080019332 634 55.94280809365571
583.6143080019332 635 55.94280809365571
583.6143080019332 636 55.94280809365571
583.6143080019332 637 55.94280809365571
567.1598904784919 673 66.59858106387584
567.1598904784919 674 66.59858106387584
567.1598904784919 675 66.59858106387584
565.1030882880618 676 67.93055268515336
565.1030882880618 677 67.93055268515336
565.1030882880618 678 67.93055268515336
565.1030882880618 679 67.93055268515336
550.7054729550507 766 77.25435403409597
550.7054729550507 767 77.25435403409597
550.7054729550507 768 77.25435403409597
550.7054729550507 769 77.25435403409597
548.6486707646205 770 78.5863256553735
548.6486707646205 771 78.5863256553735
578.359261032823 632 46.84079974699608
578.359261032823 633 46.84079974699608
578.359261032823 634 46.84079974699608
554.3581151128482 692 59.108628252161715
554.3581151128482 693 59.108628252161715
554.3581151128482 694 59.108628252161715
554.3581151128482 695 59.108628252161715
554.3581151128482 696 59.108628252161715
554.3581151128482 697 59.108628252161715
554.3581151128482 698 59.108628252161715
554.3581151128482 699 59.108628252161715
554.3581151128482 700 59.108628252161715
552.1761927564868 701 60.22388538899496
547.8123480437641 751 62.45439966266144
547.8123480437641 752 62.45439966266144
547.8123480437641 753 62.45439966266144
547.8123480437641 754 62.45439966266144
547.8123480437641 755 62.45439966266144
545.6304256874027 756 63.56965679949467
576.0870820909015 632 42.100468040003776
576.0870820909015 633 42.100468040003776
576.0870820909015 634 42.100468040003776
571.7756234010909 630 38.13721294788221
571.7756234010909 631 38.13721294788221
571.7756234010909 632 38.13721294788221
571.7756234010909 633 38.13721294788221
551.2170329501564 678 46.11942030906686
551.2170329501564 679 46.11942030906686
532.9427303271036 798 53.214715741231
532.9427303271036 799 53.214715741231
532.9427303271036 800 53.214715741231
532.9427303271036 801 53.214715741231
530.658442499222 802 54.10162767025151
530.658442499222 803 54.10162767025151
530.658442499222 804 54.10162767025151
530.658442499222 805 54.10162767025151
569.9564427496973 632 33.0720701254374
569.9564427496973 633 33.0720701254374
569.9564427496973 634 33.0720701254374
567.6298483950391 635 33.84118803533129
530.4043387205079 798 46.147074593633576
530.4043387205079 799 46.147074593633576
530.4043387205079 800 46.147074593633576
528.0777443658496 801 46.91619250352747
528.0777443658496 802 46.91619250352747
528.0777443658496 803 46.91619250352747
528.0777443658496 804 46.91619250352747
528.0777443658496 805 46.91619250352747
566.03543325394 633 28.569963398110307
563.6726021915296 645 29.21928074806736
563.6726021915296 646 29.21928074806736
563.6726021915296 647 29.21928074806736
563.6726021915296 648 29.21928074806736
563.6726021915296 649 29.21928074806736
563.6726021915296 650 29.21928074806736
547.1327847546564 673 33.764502197766724
544.769953692246 674 34.413819547723776
544.769953692246 675 34.413819547723776
544.769953692246 676 34.413819547723776
544.769953692246 677 34.413819547723776
544.769953692246 678 34.413819547723776
544.769953692246 679 34.413819547723776
532.9557983801936 761 37.66040629750904
530.5929673177832 762 38.30972364746609
532.9557983801936 763 37.66040629750904
532.9557983801936 764 37.66040629750904
532.9557983801936 765 37.66040629750904
530.5929673177832 766 38.30972364746609
528.2301362553727 768 38.959040997423145
528.2301362553727 769 38.959040997423145
528.2301362553727 770 38.959040997423145
528.2301362553727 771 38.959040997423145
528.2301362553727 772 38.959040997423145
528.2301362553727 773 38.959040997423145
528.2301362553727 795 38.959040997423145
525.8673051929622 796 39.6083583473802
525.8673051929622 797 39.6083583473802
525.8673051929622 798 39.6083583473802
525.8673051929622 799 39.6083583473802
525.8673051929622 800 39.6083583473802
525.8673051929622 801 39.6083583473802
525.8673051929622 802 39.6083583473802
523.5044741305519 803 40.25767569733725
523.5044741305519 804 40.25767569733725
523.5044741305519 805 40.25767569733725
523.5044741305519 806 40.25767569733725
562.319346383262 633 23.752025783650208
562.319346383262 634 23.752025783650208
562.319346383262 635 23.752025783650208
543.1761190736196 673 27.97460814518802
543.1761190736196 674 27.97460814518802
543.1761190736196 675 27.97460814518802
543.1761190736196 676 27.97460814518802
543.1761190736196 677 27.97460814518802
543.1761190736196 678 27.97460814518802
533.6045054187985 739 30.085899325956927
533.6045054187985 740 30.085899325956927
533.6045054187985 741 30.085899325956927
533.6045054187985 742 30.085899325956927
531.2116020050933 750 30.613722121149152
531.2116020050933 751 30.613722121149152
531.2116020050933 752 30.613722121149152
531.2116020050933 753 30.613722121149152
528.8186985913878 754 31.141544916341385
528.8186985913878 755 31.141544916341385
528.8186985913878 756 31.141544916341385
528.8186985913878 757 31.141544916341385
528.8186985913878 758 31.141544916341385
528.8186985913878 759 31.141544916341385
528.8186985913878 760 31.141544916341385
528.8186985913878 761 31.141544916341385
526.4257951776826 762 31.66936771153361
526.4257951776826 763 31.66936771153361
526.4257951776826 764 31.66936771153361
526.4257951776826 765 31.66936771153361
526.4257951776826 766 31.66936771153361
526.4257951776826 767 31.66936771153361
526.4257951776826 768 31.66936771153361
526.4257951776826 769 31.66936771153361
524.0328917639773 770 32.19719050672583
524.0328917639773 771 32.19719050672583
524.0328917639773 772 32.19719050672583
524.0328917639773 773 32.19719050672583
524.0328917639773 795 32.19719050672583
561.2470171054692 634 18.222804495933328
561.2470171054692 635 18.222804495933328
541.9131534797749 670 21.462414184099256
541.9131534797749 671 21.462414184099256
541.9131534797749 672 21.462414184099256
541.9131534797749 673 21.462414184099256
541.9131534797749 674 21.462414184099256
541.9131534797749 675 21.462414184099256
541.9131534797749 676 21.462414184099256
541.9131534797749 677 21.462414184099256
532.2462216669277 749 23.082219028182216
529.8294887137159 750 23.487170239202957
529.8294887137159 751 23.487170239202957
529.8294887137159 752 23.487170239202957
529.8294887137159 753 23.487170239202957
527.4127557605041 754 23.8921214502237
527.4127557605041 755 23.8921214502237
527.4127557605041 756 23.8921214502237
527.4127557605041 757 23.8921214502237
527.4127557605041 758 23.8921214502237
527.4127557605041 759 23.8921214502237
527.4127557605041 760 23.8921214502237
527.4127557605041 761 23.8921214502237
524.9960228072923 762 24.29707266124444
524.9960228072923 763 24.29707266124444
524.9960228072923 764 24.29707266124444
524.9960228072923 765 24.29707266124444
524.9960228072923 766 24.29707266124444
524.9960228072923 767 24.29707266124444
524.9960228072923 768 24.29707266124444
524.9960228072923 769 24.29707266124444
538.5500943313604 673 15.175250390325976
538.5500943313604 674 15.175250390325976
538.5500943313604 675 15.175250390325976
538.5500943313604 676 15.175250390325976
538.5500943313604 677 15.175250390325976
538.5500943313604 678 15.175250390325976
538.5500943313604 679 15.175250390325976
528.8130642818314 746 16.299343011831603
528.8130642818314 747 16.299343011831603
528.8130642818314 748 16.299343011831603
528.8130642818314 749 16.299343011831603
528.8130642818314 750 16.299343011831603
528.8130642818314 751 16.299343011831603
526.3788067694493 752 16.580366167208012
526.3788067694493 753 16.580366167208012
526.3788067694493 754 16.580366167208012
526.3788067694493 755 16.580366167208012
523.944549257067 756 16.86138932258442
523.944549257067 757 16.86138932258442
523.944549257067 758 16.86138932258442
523.944549257067 759 16.86138932258442
523.944549257067 760 16.86138932258442
521.5102917446849 762 17.142412477960825
523.944549257067 763 16.86138932258442
523.944549257067 764 16.86138932258442
523.944549257067 765 16.86138932258442
523.944549257067 766 16.86138932258442
523.944549257067 767 16.86138932258442
523.944549257067 768 16.86138932258442
557.5101569044401 633 7.192649350698518
557.5101569044401 634 7.192649350698518
557.5101569044401 635 7.192649350698518
557.5101569044401 636 7.192649350698518
557.5101569044401 637 7.192649350698518
537.9467059312993 673 8.443544889950433
520.828686329801 762 9.53807848679586
520.828686329801 763 9.53807848679586
520.828686329801 764 9.53807848679586
520.828686329801 765 9.53807848679586
520.828686329801 766 9.53807848679586
520.828686329801 767 9.53807848679586
520.536251840132 761 1.9088607379018248
520.536251840132 762 1.9088607379018248
520.536251840132 763 1.9088607379018248
601.0193510975306 552 -17.0741010603822
601.0193510975306 553 -17.0741010603822
551.5999294042738 667 -64.38391744472463
551.5999294042738 668 -64.38391744472463
551.5999294042738 669 -64.38391744472463
565.4925969089502 719 -63.950463839461214
565.4925969089502 720 -63.950463839461214
563.4024488471291 721 -65.22947311625045
563.4024488471291 722 -65.22947311625045
563.4024488471291 723 -65.22947311625045
563.4024488471291 724 -65.22947311625045
563.4024488471291 725 -65.22947311625045
584.2525495753415 612 -65.36244099585063
584.2525495753415 613 -65.36244099585063
584.2525495753415 614 -65.36244099585063
584.2525495753415 615 -65.36244099585063
584.2525495753415 616 -65.36244099585063
582.303743883872 617 -66.8479510184836
582.303743883872 618 -66.8479510184836
582.303743883872 619 -66.8479510184836
568.6621040435854 723 -77.24652117691438
568.6621040435854 724 -77.24652117691438
568.6621040435854 725 -77.24652117691438
568.6621040435854 726 -77.24652117691438
568.6621040435854 727 -77.24652117691438
587.7018472856861 610 -69.65549516783861
587.7018472856861 611 -69.65549516783861
587.7018472856861 614 -69.65549516783861
587.7018472856861 615 -69.65549516783861
578.2429584592875 733 -95.34155050343634
576.5437539863113 734 -97.1071347720185
576.5437539863113 735 -97.1071347720185
576.5437539863113 736 -97.1071347720185
576.5437539863113 737 -97.1071347720185
576.5437539863113 738 -97.1071347720185
576.5437539863113 739 -97.1071347720185
576.5437539863113 740 -97.1071347720185
576.5437539863113 741 -97.1071347720185
576.5437539863113 742 -97.1071347720185
576.5437539863113 743 -97.1071347720185
576.5437539863113 744 -97.1071347720185
576.5437539863113 745 -97.1071347720185
576.5437539863113 746 -97.1071347720185
574.8445495133351 747 -98.87271904060066
574.8445495133351 748 -98.87271904060066
574.8445495133351 749 -98.87271904060066
583.2308464744488 733 -99.9023519300856
583.2308464744488 734 -99.9023519300856
583.2308464744488 735 -99.9023519300856
583.2308464744488 736 -99.9023519300856
583.2308464744488 737 -99.9023519300856
581.6240102980497 738 -101.75239548434644
581.6240102980497 739 -101.75239548434644
581.6240102980497 740 -101.75239548434644
581.6240102980497 741 -101.75239548434644
581.6240102980497 742 -101.75239548434644
581.6240102980497 743 -101.75239548434644
580.0171741216507 744 -103.6024390386073
580.0171741216507 745 -103.6024390386073
580.0171741216507 746 -103.6024390386073
580.0171741216507 747 -103.6024390386073
600.5273119256211 631 -88.76510922691322
585.4245536485822 744 -108.06187210232915
583.9142778208784 745 -109.99154838987073
583.9142778208784 746 -109.99154838987073
583.9142778208784 747 -109.99154838987073
586.823254832905 755 -118.25220822722103
586.823254832905 756 -118.25220822722103
585.4134794910899 760 -120.25648294293663
584.0037041492748 761 -122.26075765865224
584.0037041492748 762 -122.26075765865224
590.3585883054366 761 -126.4922974200809
595.7232354804146 763 -132.5314370435188
595.7232354804146 764 -132.5314370435188
594.5252231494535 765 -134.66904086680137
594.5252231494535 766 -134.66904086680137
594.5252231494535 767 -134.66904086680137
594.5252231494535 768 -134.66904086680137
595.7232354804146 769 -132.5314370435188
606.9364682522921 689 -127.36722641091558
606.9364682522921 690 -127.36722641091558
603.6745614377555 739 -133.95518639768707
603.6745614377555 740 -133.95518639768707
603.6745614377555 741 -133.95518639768707
604.7618637092677 742 -131.75919973542992
604.7618637092677 743 -131.75919973542992
604.7618637092677 744 -131.75919973542992
603.6745614377555 745 -133.95518639768707
603.6745614377555 746 -133.95518639768707
603.6745614377555 747 -133.95518639768707
602.5872591662433 748 -136.15117305994423
602.5872591662433 749 -136.15117305994423
602.5872591662433 753 -136.15117305994423
602.5872591662433 754 -136.15117305994423
602.5872591662433 755 -136.15117305994423
602.5872591662433 756 -136.15117305994423
602.5872591662433 757 -136.15117305994423
602.5872591662433 758 -136.15117305994423
601.4999568947311 759 -138.3471597222014
601.4999568947311 760 -138.3471597222014
601.4999568947311 761 -138.3471597222014
601.4999568947311 762 -138.3471597222014
601.4999568947311 763 -138.3471597222014
613.5221772541582 690 -130.42114452033022
610.6009105604078 735 -137.16706578862318
610.6009105604078 736 -137.16706578862318
610.6009105604078 737 -137.16706578862318
610.6009105604078 738 -137.16706578862318
610.6009105604078 739 -137.16706578862318
610.6009105604078 740 -137.16706578862318
610.6009105604078 741 -137.16706578862318
610.6009105604078 742 -137.16706578862318
610.6009105604078 743 -137.16706578862318
610.6009105604078 744 -137.16706578862318
610.6009105604078 745 -137.16706578862318
610.6009105604078 746 -137.16706578862318
609.6271549958243 747 -139.4157062113875
609.6271549958243 748 -139.4157062113875
609.6271549958243 749 -139.4157062113875
609.6271549958243 750 -139.4157062113875
609.6271549958243 751 -139.4157062113875
609.6271549958243 752 -139.4157062113875
608.6533994312408 753 -141.6643466341518
608.6533994312408 754 -141.6643466341518
608.6533994312408 755 -141.6643466341518
608.6533994312408 756 -141.6643466341518
608.6533994312408 757 -141.6643466341518
608.6533994312408 758 -141.6643466341518
608.6533994312408 759 -141.6643466341518
608.6533994312408 760 -141.6643466341518
608.6533994312408 761 -141.6643466341518
628.8319148527042 600 -110.18053138342914
628.8319148527042 601 -110.18053138342914
617.6822251253116 735 -140.0210919664412
617.6822251253116 736 -140.0210919664412
617.6822251253116 737 -140.0210919664412
617.6822251253116 738 -140.0210919664412
617.6822251253116 739 -140.0210919664412
616.8245566847429 746 -142.31651970359596
616.8245566847429 747 -142.31651970359596
616.8245566847429 748 -142.31651970359596
616.8245566847429 750 -142.31651970359596
615.9668882441742 751 -144.61194744075075
615.9668882441742 752 -144.61194744075075
615.9668882441742 753 -144.61194744075075
615.1092198036056 754 -146.90737517790552
615.1092198036056 755 -146.90737517790552
615.1092198036056 756 -146.90737517790552
615.1092198036056 757 -146.90737517790552
615.1092198036056 758 -146.90737517790552
615.1092198036056 759 -146.90737517790552
615.1092198036056 760 -146.90737517790552
615.1092198036056 761 -146.90737517790552
615.1092198036056 762 -146.90737517790552
634.5114996390561 603 -112.13887404803515
634.5114996390561 604 -112.13887404803515
627.1180620638594 686 -135.50113947470913
627.1180620638594 687 -135.50113947470913
627.1180620638594 688 -135.50113947470913
626.3787183063398 689 -137.83736601737655
626.3787183063398 690 -137.83736601737655
622.6819995187415 756 -149.51849873071353
622.6819995187415 757 -149.51849873071353
621.9426557612218 758 -151.85472527338092
621.9426557612218 759 -151.85472527338092
621.9426557612218 760 -151.85472527338092
621.9426557612218 761 -151.85472527338092
640.2836698708273 597 -113.80465919409379
640.2836698708273 598 -113.80465919409379
640.2836698708273 599 -113.80465919409379
640.2836698708273 600 -113.80465919409379
640.2836698708273 601 -113.80465919409379
629.759136283412 757 -154.110475992002
629.759136283412 758 -154.110475992002
629.759136283412 759 -154.110475992002
629.759136283412 760 -154.110475992002
