708.2443392746004 869 192.26727718545823
708.2443392746004 870 192.26727718545823
708.2443392746004 871 192.26727718545823
708.2443392746004 872 192.26727718545823
708.2443392746004 873 192.26727718545823
708.2443392746004 874 192.26727718545823
708.2443392746004 875 192.26727718545823
708.2443392746004 876 192.26727718545823
708.2443392746004 877 192.26727718545823
708.2443392746004 878 192.26727718545823
707.7662850336678 879 189.86393622064003
707.7662850336678 880 189.86393622064003
707.7662850336678 881 189.86393622064003
707.7662850336678 882 189.86393622064003
707.7662850336678 883 189.86393622064003
694.0899874775383 354 162.40150402686695
694.4495395294418 355 164.82540707204404
694.4495395294418 356 164.82540707204404
694.4495395294418 357 164.82540707204404
694.8090915813455 358 167.24931011722117
694.8090915813455 359 167.24931011722117
694.8090915813455 360 167.24931011722117
694.8090915813455 361 167.24931011722117
694.8090915813455 362 167.24931011722117
694.8090915813455 363 167.24931011722117
695.168643633249 364 169.6732131623983
694.8090915813455 365 167.24931011722117
694.8090915813455 366 167.24931011722117
694.8090915813455 367 167.24931011722117
694.8090915813455 368 167.24931011722117
694.8090915813455 369 167.24931011722117
694.8090915813455 370 167.24931011722117
694.8090915813455 371 167.24931011722117
694.8090915813455 372 167.24931011722117
694.8090915813455 373 167.24931011722117
694.8090915813455 374 167.24931011722117
694.4495395294418 375 164.82540707204404
694.4495395294418 376 164.82540707204404
694.4495395294418 377 164.82540707204404
694.4495395294418 378 164.82540707204404
694.8090915813455 379 167.24931011722117
694.8090915813455 380 167.24931011722117
694.8090915813455 381 167.24931011722117
694.8090915813455 382 167.24931011722117
694.8090915813455 383 167.24931011722117
694.8090915813455 384 167.24931011722117
694.8090915813455 385 167.24931011722117
694.8090915813455 386 167.24931011722117
694.8090915813455 387 167.24931011722117
694.8090915813455 388 167.24931011722117
694.8090915813455 389 167.24931011722117
694.8090915813455 390 167.24931011722117
694.8090915813455 391 167.24931011722117
694.8090915813455 392 167.24931011722117
694.8090915813455 393 167.24931011722117
694.8090915813455 394 167.24931011722117
694.8090915813455 395 167.24931011722117
694.8090915813455 396 167.24931011722117
694.8090915813455 397 167.24931011722117
694.8090915813455 398 167.24931011722117
694.8090915813455 399 167.24931011722117
694.8090915813455 400 167.24931011722117
694.8090915813455 401 167.24931011722117
694.8090915813455 402 167.24931011722117
694.8090915813455 403 167.24931011722117
695.168643633249 404 169.6732131623983
695.168643633249 405 169.6732131623983
695.168643633249 406 169.6732131623983
695.168643633249 407 169.6732131623983
695.168643633249 408 169.6732131623983
695.168643633249 409 169.6732131623983
695.168643633249 410 169.6732131623983
695.168643633249 411 169.6732131623983
695.168643633249 412 169.6732131623983
695.168643633249 413 169.6732131623983
695.168643633249 414 169.6732131623983
695.168643633249 415 169.6732131623983
695.168643633249 416 169.6732131623983
695.168643633249 417 169.6732131623983
695.168643633249 418 169.6732131623983
695.168643633249 419 169.6732131623983
695.168643633249 420 169.6732131623983
695.168643633249 421 169.6732131623983
695.168643633249 422 169.6732131623983
695.168643633249 423 169.6732131623983
695.168643633249 424 169.6732131623983
695.168643633249 425 169.6732131623983
695.168643633249 426 169.6732131623983
695.168643633249 427 169.6732131623983
695.168643633249 428 169.6732131623983
695.168643633249 429 169.6732131623983
695.168643633249 430 169.6732131623983
695.168643633249 431 169.6732131623983
695.168643633249 432 169.6732131623983
695.168643633249 433 169.6732131623983
695.168643633249 434 169.6732131623983
695.168643633249 435 169.6732131623983
695.168643633249 436 169.6732131623983
695.168643633249 437 169.6732131623983
695.168643633249 438 169.6732131623983
695.168643633249 439 169.6732131623983
695.168643633249 440 169.6732131623983
695.168643633249 441 169.6732131623983
695.168643633249 442 169.6732131623983
695.168643633249 443 169.6732131623983
695.168643633249 444 169.6732131623983
695.168643633249 445 169.6732131623983
695.5281956851525 446 172.0971162075754
695.5281956851525 447 172.0971162075754
695.5281956851525 448 172.0971162075754
695.5281956851525 449 172.0971162075754
695.5281956851525 450 172.0971162075754
695.5281956851525 451 172.0971162075754
695.5281956851525 452 172.0971162075754
695.5281956851525 453 172.0971162075754
695.5281956851525 454 172.0971162075754
695.5281956851525 455 172.0971162075754
695.5281956851525 456 172.0971162075754
695.5281956851525 457 172.0971162075754
695.5281956851525 458 172.0971162075754
695.5281956851525 459 172.0971162075754
695.5281956851525 460 172.0971162075754
695.5281956851525 461 172.0971162075754
695.5281956851525 462 172.0971162075754
695.5281956851525 463 172.0971162075754
695.5281956851525 464 172.0971162075754
695.5281956851525 465 172.0971162075754
695.5281956851525 466 172.0971162075754
695.5281956851525 467 172.0971162075754
695.5281956851525 468 172.0971162075754
695.5281956851525 469 172.0971162075754
695.5281956851525 470 172.0971162075754
695.5281956851525 471 172.0971162075754
695.5281956851525 472 172.0971162075754
695.5281956851525 473 172.0971162075754
695.5281956851525 474 172.0971162075754
695.5281956851525 475 172.0971162075754
695.5281956851525 476 172.0971162075754
695.5281956851525 477 172.0971162075754
695.5281956851525 478 172.0971162075754
695.8877477370561 479 174.52101925275252
695.8877477370561 480 174.52101925275252
695.8877477370561 481 174.52101925275252
695.8877477370561 482 174.52101925275252
695.8877477370561 483 174.52101925275252
695.8877477370561 484 174.52101925275252
695.8877477370561 485 174.52101925275252
695.8877477370561 486 174.52101925275252
695.8877477370561 487 174.52101925275252
695.8877477370561 488 174.52101925275252
695.8877477370561 489 174.52101925275252
695.8877477370561 490 174.52101925275252
695.8877477370561 491 174.52101925275252
695.8877477370561 492 174.52101925275252
695.8877477370561 493 174.52101925275252
695.8877477370561 494 174.52101925275252
695.8877477370561 495 174.52101925275252
695.8877477370561 496 174.52101925275252
695.8877477370561 497 174.52101925275252
695.8877477370561 498 174.52101925275252
695.8877477370561 499 174.52101925275252
695.8877477370561 500 174.52101925275252
695.8877477370561 501 174.52101925275252
695.8877477370561 502 174.52101925275252
695.8877477370561 503 174.52101925275252
695.8877477370561 504 174.52101925275252
695.8877477370561 505 174.52101925275252
695.8877477370561 506 174.52101925275252
695.8877477370561 507 174.52101925275252
695.8877477370561 508 174.52101925275252
695.8877477370561 509 174.52101925275252
695.8877477370561 510 174.52101925275252
695.8877477370561 511 174.52101925275252
695.8877477370561 512 174.52101925275252
695.8877477370561 513 174.52101925275252
695.8877477370561 514 174.52101925275252
696.2472997889596 515 176.94492229792965
696.2472997889596 516 176.94492229792965
696.2472997889596 517 176.94492229792965
696.2472997889596 518 176.94492229792965
696.2472997889596 519 176.94492229792965
696.2472997889596 520 176.94492229792965
696.2472997889596 521 176.94492229792965
696.2472997889596 522 176.94492229792965
696.2472997889596 523 176.94492229792965
696.2472997889596 524 176.94492229792965
696.2472997889596 525 176.94492229792965
696.2472997889596 526 176.94492229792965
696.2472997889596 527 176.94492229792965
696.2472997889596 528 176.94492229792965
696.2472997889596 529 176.94492229792965
696.2472997889596 530 176.94492229792965
696.2472997889596 531 176.94492229792965
696.2472997889596 532 176.94492229792965
696.2472997889596 533 176.94492229792965
696.2472997889596 534 176.94492229792965
696.2472997889596 535 176.94492229792965
696.6068518408632 536 179.36882534310678
696.2472997889596 537 176.94492229792965
696.2472997889596 538 176.94492229792965
696.6068518408632 539 179.36882534310678
696.6068518408632 540 179.36882534310678
696.2472997889596 541 176.94492229792965
696.2472997889596 542 176.94492229792965
696.6068518408632 543 179.36882534310678
696.6068518408632 544 179.36882534310678
696.6068518408632 545 179.36882534310678
696.6068518408632 546 179.36882534310678
696.6068518408632 547 179.36882534310678
696.6068518408632 548 179.36882534310678
696.6068518408632 549 179.36882534310678
696.6068518408632 550 179.36882534310678
696.6068518408632 551 179.36882534310678
696.6068518408632 552 179.36882534310678
696.6068518408632 553 179.36882534310678
696.6068518408632 554 179.36882534310678
696.6068518408632 555 179.36882534310678
696.6068518408632 556 179.36882534310678
696.6068518408632 557 179.36882534310678
696.6068518408632 558 179.36882534310678
696.6068518408632 559 179.36882534310678
696.6068518408632 560 179.36882534310678
696.6068518408632 561 179.36882534310678
696.6068518408632 562 179.36882534310678
696.6068518408632 563 179.36882534310678
696.6068518408632 564 179.36882534310678
696.6068518408632 565 179.36882534310678
696.6068518408632 566 179.36882534310678
696.6068518408632 567 179.36882534310678
696.6068518408632 568 179.36882534310678
696.6068518408632 569 179.36882534310678
696.6068518408632 570 179.36882534310678
696.6068518408632 571 179.36882534310678
696.6068518408632 572 179.36882534310678
696.6068518408632 573 179.36882534310678
696.6068518408632 574 179.36882534310678
696.6068518408632 575 179.36882534310678
696.6068518408632 576 179.36882534310678
696.6068518408632 577 179.36882534310678
696.6068518408632 578 179.36882534310678
696.6068518408632 579 179.36882534310678
696.6068518408632 580 179.36882534310678
696.6068518408632 581 179.36882534310678
696.6068518408632 582 179.36882534310678
696.6068518408632 583 179.36882534310678
696.9664038927667 584 181.79272838828388
696.9664038927667 585 181.79272838828388
696.9664038927667 586 181.79272838828388
696.9664038927667 587 181.79272838828388
696.9664038927667 588 181.79272838828388
696.9664038927667 589 181.79272838828388
696.9664038927667 590 181.79272838828388
696.9664038927667 591 181.79272838828388
696.9664038927667 592 181.79272838828388
696.9664038927667 593 181.79272838828388
696.9664038927667 594 181.79272838828388
696.9664038927667 595 181.79272838828388
696.9664038927667 596 181.79272838828388
696.9664038927667 597 181.79272838828388
696.9664038927667 598 181.79272838828388
696.9664038927667 599 181.79272838828388
696.9664038927667 600 181.79272838828388
696.9664038927667 601 181.79272838828388
696.9664038927667 602 181.79272838828388
696.9664038927667 603 181.79272838828388
696.9664038927667 604 181.79272838828388
696.9664038927667 605 181.79272838828388
696.9664038927667 606 181.79272838828388
696.9664038927667 607 181.79272838828388
696.9664038927667 608 181.79272838828388
696.9664038927667 609 181.79272838828388
696.9664038927667 610 181.79272838828388
697.3259559446703 611 184.21663143346098
696.9664038927667 612 181.79272838828388
696.9664038927667 613 181.79272838828388
697.3259559446703 614 184.21663143346098
697.3259559446703 615 184.21663143346098
697.3259559446703 616 184.21663143346098
697.3259559446703 617 184.21663143346098
697.3259559446703 618 184.21663143346098
697.3259559446703 619 184.21663143346098
697.3259559446703 620 184.21663143346098
697.3259559446703 621 184.21663143346098
697.3259559446703 622 184.21663143346098
697.3259559446703 623 184.21663143346098
697.3259559446703 624 184.21663143346098
697.3259559446703 625 184.21663143346098
697.3259559446703 626 184.21663143346098
697.3259559446703 627 184.21663143346098
697.3259559446703 628 184.21663143346098
697.3259559446703 629 184.21663143346098
697.3259559446703 630 184.21663143346098
697.3259559446703 631 184.21663143346098
697.3259559446703 632 184.21663143346098
697.3259559446703 633 184.21663143346098
697.3259559446703 634 184.21663143346098
697.3259559446703 635 184.21663143346098
697.3259559446703 636 184.21663143346098
697.3259559446703 637 184.21663143346098
697.3259559446703 638 184.21663143346098
697.3259559446703 639 184.21663143346098
697.3259559446703 640 184.21663143346098
697.3259559446703 641 184.21663143346098
697.3259559446703 642 184.21663143346098
697.3259559446703 643 184.21663143346098
697.3259559446703 644 184.21663143346098
697.3259559446703 645 184.21663143346098
697.6855079965738 646 186.64053447863813
697.6855079965738 647 186.64053447863813
697.6855079965738 648 186.64053447863813
697.6855079965738 649 186.64053447863813
697.6855079965738 650 186.64053447863813
697.6855079965738 651 186.64053447863813
697.6855079965738 652 186.64053447863813
697.6855079965738 653 186.64053447863813
697.6855079965738 654 186.64053447863813
697.6855079965738 655 186.64053447863813
697.6855079965738 656 186.64053447863813
697.6855079965738 657 186.64053447863813
697.6855079965738 658 186.64053447863813
697.6855079965738 659 186.64053447863813
697.6855079965738 660 186.64053447863813
697.6855079965738 661 186.64053447863813
697.6855079965738 662 186.64053447863813
697.6855079965738 663 186.64053447863813
697.6855079965738 664 186.64053447863813
697.6855079965738 665 186.64053447863813
697.6855079965738 666 186.64053447863813
697.6855079965738 667 186.64053447863813
697.6855079965738 668 186.64053447863813
697.6855079965738 669 186.64053447863813
697.6855079965738 670 186.64053447863813
697.6855079965738 671 186.64053447863813
697.6855079965738 672 186.64053447863813
697.6855079965738 673 186.64053447863813
697.6855079965738 674 186.64053447863813
697.6855079965738 675 186.64053447863813
697.6855079965738 676 186.64053447863813
697.6855079965738 677 186.64053447863813
697.6855079965738 678 186.64053447863813
697.6855079965738 679 186.64053447863813
697.6855079965738 680 186.64053447863813
697.6855079965738 681 186.64053447863813
697.6855079965738 682 186.64053447863813
697.6855079965738 683 186.64053447863813
697.6855079965738 684 186.64053447863813
697.6855079965738 685 186.64053447863813
697.6855079965738 686 186.64053447863813
697.6855079965738 687 186.64053447863813
697.6855079965738 688 186.64053447863813
698.0450600484775 689 189.06443752381523
697.6855079965738 690 186.64053447863813
698.0450600484775 691 189.06443752381523
698.0450600484775 692 189.06443752381523
698.0450600484775 693 189.06443752381523
698.0450600484775 694 189.06443752381523
698.0450600484775 695 189.06443752381523
698.0450600484775 696 189.06443752381523
698.0450600484775 697 189.06443752381523
698.0450600484775 698 189.06443752381523
698.0450600484775 699 189.06443752381523
698.0450600484775 700 189.06443752381523
698.0450600484775 701 189.06443752381523
698.0450600484775 702 189.06443752381523
698.0450600484775 703 189.06443752381523
698.0450600484775 704 189.06443752381523
698.0450600484775 705 189.06443752381523
698.0450600484775 706 189.06443752381523
698.0450600484775 707 189.06443752381523
698.0450600484775 708 189.06443752381523
698.0450600484775 709 189.06443752381523
698.0450600484775 710 189.06443752381523
698.0450600484775 711 189.06443752381523
698.0450600484775 712 189.06443752381523
698.0450600484775 713 189.06443752381523
698.0450600484775 714 189.06443752381523
698.0450600484775 715 189.06443752381523
698.0450600484775 716 189.06443752381523
698.0450600484775 717 189.06443752381523
698.0450600484775 718 189.06443752381523
698.0450600484775 719 189.06443752381523
698.0450600484775 720 189.06443752381523
698.0450600484775 721 189.06443752381523
698.404612100381 722 191.48834056899236
698.404612100381 723 191.48834056899236
698.404612100381 724 191.48834056899236
698.404612100381 725 191.48834056899236
698.404612100381 726 191.48834056899236
698.404612100381 727 191.48834056899236
698.404612100381 728 191.48834056899236
698.404612100381 729 191.48834056899236
698.404612100381 730 191.48834056899236
698.404612100381 731 191.48834056899236
698.404612100381 732 191.48834056899236
698.404612100381 733 191.48834056899236
698.404612100381 734 191.48834056899236
698.404612100381 735 191.48834056899236
698.404612100381 736 191.48834056899236
698.404612100381 737 191.48834056899236
698.404612100381 738 191.48834056899236
698.404612100381 739 191.48834056899236
698.404612100381 740 191.48834056899236
698.404612100381 741 191.48834056899236
698.404612100381 742 191.48834056899236
698.404612100381 743 191.48834056899236
698.404612100381 744 191.48834056899236
698.0450600484775 745 189.06443752381523
698.0450600484775 746 189.06443752381523
698.0450600484775 747 189.06443752381523
698.404612100381 748 191.48834056899236
698.404612100381 749 191.48834056899236
698.404612100381 750 191.48834056899236
698.404612100381 751 191.48834056899236
698.404612100381 752 191.48834056899236
698.404612100381 753 191.48834056899236
698.404612100381 754 191.48834056899236
698.404612100381 755 191.48834056899236
698.404612100381 756 191.48834056899236
698.404612100381 757 191.48834056899236
698.404612100381 758 191.48834056899236
698.404612100381 759 191.48834056899236
698.404612100381 760 191.48834056899236
698.404612100381 761 191.48834056899236
698.404612100381 762 191.48834056899236
698.404612100381 763 191.48834056899236
698.404612100381 764 191.48834056899236
698.404612100381 765 191.48834056899236
698.404612100381 766 191.48834056899236
698.404612100381 767 191.48834056899236
698.404612100381 768 191.48834056899236
698.404612100381 769 191.48834056899236
698.404612100381 770 191.48834056899236
698.404612100381 771 191.48834056899236
698.404612100381 772 191.48834056899236
698.404612100381 773 191.48834056899236
698.404612100381 774 191.48834056899236
698.404612100381 775 191.48834056899236
698.404612100381 776 191.48834056899236
698.404612100381 777 191.48834056899236
698.404612100381 778 191.48834056899236
698.404612100381 779 191.48834056899236
698.404612100381 780 191.48834056899236
698.404612100381 781 191.48834056899236
698.404612100381 782 191.48834056899236
698.404612100381 783 191.48834056899236
698.404612100381 784 191.48834056899236
698.404612100381 785 191.48834056899236
698.404612100381 786 191.48834056899236
698.404612100381 787 191.48834056899236
698.404612100381 788 191.48834056899236
698.404612100381 789 191.48834056899236
698.404612100381 790 191.48834056899236
698.404612100381 791 191.48834056899236
698.404612100381 792 191.48834056899236
698.404612100381 793 191.48834056899236
698.404612100381 794 191.48834056899236
698.404612100381 795 191.48834056899236
698.404612100381 796 191.48834056899236
698.404612100381 797 191.48834056899236
698.404612100381 798 191.48834056899236
698.404612100381 799 191.48834056899236
698.404612100381 800 191.48834056899236
698.404612100381 801 191.48834056899236
698.404612100381 802 191.48834056899236
698.404612100381 803 191.48834056899236
698.404612100381 804 191.48834056899236
698.404612100381 805 191.48834056899236
698.404612100381 806 191.48834056899236
698.404612100381 807 191.48834056899236
698.404612100381 808 191.48834056899236
698.404612100381 809 191.48834056899236
698.404612100381 810 191.48834056899236
698.404612100381 811 191.48834056899236
698.404612100381 812 191.48834056899236
698.404612100381 813 191.48834056899236
698.404612100381 814 191.48834056899236
698.404612100381 815 191.48834056899236
698.404612100381 816 191.48834056899236
698.404612100381 817 191.48834056899236
698.404612100381 818 191.48834056899236
698.404612100381 819 191.48834056899236
698.404612100381 820 191.48834056899236
698.404612100381 821 191.48834056899236
698.404612100381 822 191.48834056899236
698.404612100381 823 191.48834056899236
698.404612100381 824 191.48834056899236
698.404612100381 825 191.48834056899236
698.404612100381 826 191.48834056899236
698.404612100381 827 191.48834056899236
698.404612100381 828 191.48834056899236
698.404612100381 829 191.48834056899236
698.404612100381 830 191.48834056899236
698.404612100381 831 191.48834056899236
698.404612100381 832 191.48834056899236
698.404612100381 833 191.48834056899236
698.404612100381 834 191.48834056899236
698.404612100381 835 191.48834056899236
698.404612100381 836 191.48834056899236
698.404612100381 837 191.48834056899236
698.404612100381 838 191.48834056899236
698.404612100381 839 191.48834056899236
698.404612100381 840 191.48834056899236
698.7641641522845 841 193.91224361416945
698.7641641522845 842 193.91224361416945
698.7641641522845 843 193.91224361416945
698.7641641522845 844 193.91224361416945
698.404612100381 845 191.48834056899236
698.404612100381 846 191.48834056899236
698.404612100381 847 191.48834056899236
698.404612100381 848 191.48834056899236
698.404612100381 849 191.48834056899236
698.404612100381 850 191.48834056899236
698.404612100381 851 191.48834056899236
698.404612100381 852 191.48834056899236
698.404612100381 853 191.48834056899236
698.404612100381 854 191.48834056899236
698.404612100381 855 191.48834056899236
698.404612100381 856 191.48834056899236
698.404612100381 857 191.48834056899236
698.404612100381 858 191.48834056899236
698.404612100381 859 191.48834056899236
698.404612100381 860 191.48834056899236
698.404612100381 861 191.48834056899236
698.404612100381 862 191.48834056899236
698.404612100381 863 191.48834056899236
698.404612100381 864 191.48834056899236
698.404612100381 865 191.48834056899236
698.404612100381 866 191.48834056899236
698.404612100381 867 191.48834056899236
698.404612100381 868 191.48834056899236
698.404612100381 869 191.48834056899236
698.404612100381 870 191.48834056899236
698.404612100381 871 191.48834056899236
698.404612100381 872 191.48834056899236
698.404612100381 873 191.48834056899236
698.404612100381 874 191.48834056899236
698.404612100381 875 191.48834056899236
698.404612100381 876 191.48834056899236
698.404612100381 877 191.48834056899236
698.404612100381 878 191.48834056899236
698.0450600484775 879 189.06443752381523
698.0450600484775 880 189.06443752381523
698.0450600484775 881 189.06443752381523
698.0450600484775 882 189.06443752381523
686.0923059227315 354 163.38792396302014
686.0923059227315 355 163.38792396302014
686.0923059227315 356 163.38792396302014
686.0923059227315 357 163.38792396302014
686.0923059227315 358 163.38792396302014
686.3324895932201 359 165.82654969381147
686.3324895932201 360 165.82654969381147
686.3324895932201 361 165.82654969381147
686.3324895932201 362 165.82654969381147
686.3324895932201 363 165.82654969381147
686.3324895932201 364 165.82654969381147
686.3324895932201 365 165.82654969381147
686.5726732637086 366 168.2651754246028
686.3324895932201 367 165.82654969381147
686.3324895932201 368 165.82654969381147
686.3324895932201 369 165.82654969381147
686.3324895932201 370 165.82654969381147
686.3324895932201 371 165.82654969381147
686.3324895932201 372 165.82654969381147
686.0923059227315 373 163.38792396302014
686.0923059227315 374 163.38792396302014
686.0923059227315 375 163.38792396302014
686.0923059227315 376 163.38792396302014
686.0923059227315 377 163.38792396302014
686.3324895932201 378 165.82654969381147
686.3324895932201 379 165.82654969381147
686.3324895932201 380 165.82654969381147
686.3324895932201 381 165.82654969381147
686.3324895932201 382 165.82654969381147
686.3324895932201 383 165.82654969381147
686.3324895932201 384 165.82654969381147
686.3324895932201 385 165.82654969381147
686.3324895932201 386 165.82654969381147
686.3324895932201 387 165.82654969381147
686.3324895932201 388 165.82654969381147
686.3324895932201 389 165.82654969381147
686.3324895932201 390 165.82654969381147
686.3324895932201 391 165.82654969381147
686.3324895932201 392 165.82654969381147
686.3324895932201 393 165.82654969381147
686.3324895932201 394 165.82654969381147
686.3324895932201 395 165.82654969381147
686.3324895932201 396 165.82654969381147
686.3324895932201 397 165.82654969381147
686.3324895932201 398 165.82654969381147
686.3324895932201 399 165.82654969381147
686.3324895932201 400 165.82654969381147
686.3324895932201 401 165.82654969381147
686.5726732637086 402 168.2651754246028
686.5726732637086 403 168.2651754246028
686.5726732637086 404 168.2651754246028
686.5726732637086 405 168.2651754246028
686.5726732637086 406 168.2651754246028
686.3324895932201 407 165.82654969381147
686.3324895932201 408 165.82654969381147
686.3324895932201 409 165.82654969381147
686.3324895932201 410 165.82654969381147
686.3324895932201 411 165.82654969381147
686.3324895932201 412 165.82654969381147
686.3324895932201 413 165.82654969381147
686.5726732637086 414 168.2651754246028
686.5726732637086 415 168.2651754246028
686.5726732637086 416 168.2651754246028
686.5726732637086 417 168.2651754246028
686.5726732637086 418 168.2651754246028
686.5726732637086 419 168.2651754246028
686.5726732637086 420 168.2651754246028
686.5726732637086 421 168.2651754246028
686.5726732637086 422 168.2651754246028
686.5726732637086 423 168.2651754246028
686.5726732637086 424 168.2651754246028
686.5726732637086 425 168.2651754246028
686.5726732637086 426 168.2651754246028
686.5726732637086 427 168.2651754246028
686.5726732637086 428 168.2651754246028
686.5726732637086 429 168.2651754246028
686.5726732637086 430 168.2651754246028
686.5726732637086 431 168.2651754246028
686.8128569341972 432 170.70380115539416
686.5726732637086 433 168.2651754246028
686.8128569341972 434 170.70380115539416
686.8128569341972 435 170.70380115539416
686.8128569341972 436 170.70380115539416
686.8128569341972 437 170.70380115539416
686.8128569341972 438 170.70380115539416
686.8128569341972 439 170.70380115539416
686.8128569341972 440 170.70380115539416
686.8128569341972 441 170.70380115539416
686.8128569341972 442 170.70380115539416
686.8128569341972 443 170.70380115539416
686.8128569341972 444 170.70380115539416
686.8128569341972 445 170.70380115539416
686.8128569341972 446 170.70380115539416
686.8128569341972 447 170.70380115539416
686.8128569341972 448 170.70380115539416
686.8128569341972 449 170.70380115539416
686.8128569341972 450 170.70380115539416
686.8128569341972 451 170.70380115539416
686.8128569341972 452 170.70380115539416
686.8128569341972 453 170.70380115539416
686.8128569341972 454 170.70380115539416
686.8128569341972 455 170.70380115539416
686.8128569341972 456 170.70380115539416
686.8128569341972 457 170.70380115539416
686.8128569341972 458 170.70380115539416
686.8128569341972 459 170.70380115539416
686.8128569341972 460 170.70380115539416
686.8128569341972 461 170.70380115539416
686.8128569341972 462 170.70380115539416
686.8128569341972 463 170.70380115539416
686.8128569341972 464 170.70380115539416
686.8128569341972 465 170.70380115539416
686.8128569341972 466 170.70380115539416
686.8128569341972 467 170.70380115539416
686.8128569341972 468 170.70380115539416
686.8128569341972 469 170.70380115539416
687.0530406046856 470 173.14242688618552
687.0530406046856 471 173.14242688618552
686.8128569341972 472 170.70380115539416
687.0530406046856 473 173.14242688618552
687.0530406046856 474 173.14242688618552
686.8128569341972 475 170.70380115539416
687.0530406046856 476 173.14242688618552
687.0530406046856 477 173.14242688618552
687.0530406046856 478 173.14242688618552
687.0530406046856 479 173.14242688618552
687.0530406046856 480 173.14242688618552
687.0530406046856 481 173.14242688618552
687.0530406046856 482 173.14242688618552
687.0530406046856 483 173.14242688618552
687.0530406046856 484 173.14242688618552
687.0530406046856 485 173.14242688618552
687.0530406046856 486 173.14242688618552
687.0530406046856 487 173.14242688618552
687.0530406046856 488 173.14242688618552
687.0530406046856 489 173.14242688618552
687.0530406046856 490 173.14242688618552
687.0530406046856 491 173.14242688618552
687.0530406046856 492 173.14242688618552
687.0530406046856 493 173.14242688618552
687.0530406046856 494 173.14242688618552
687.0530406046856 495 173.14242688618552
687.0530406046856 496 173.14242688618552
687.0530406046856 497 173.14242688618552
687.0530406046856 498 173.14242688618552
687.0530406046856 499 173.14242688618552
687.2932242751742 500 175.58105261697685
687.2932242751742 501 175.58105261697685
687.0530406046856 502 173.14242688618552
687.0530406046856 503 173.14242688618552
687.2932242751742 504 175.58105261697685
687.2932242751742 505 175.58105261697685
687.2932242751742 506 175.58105261697685
687.2932242751742 507 175.58105261697685
687.2932242751742 508 175.58105261697685
687.2932242751742 509 175.58105261697685
687.2932242751742 510 175.58105261697685
687.2932242751742 511 175.58105261697685
687.2932242751742 512 175.58105261697685
687.2932242751742 513 175.58105261697685
687.2932242751742 514 175.58105261697685
687.2932242751742 515 175.58105261697685
687.2932242751742 516 175.58105261697685
687.2932242751742 517 175.58105261697685
687.2932242751742 518 175.58105261697685
687.2932242751742 519 175.58105261697685
687.2932242751742 520 175.58105261697685
687.2932242751742 521 175.58105261697685
687.2932242751742 522 175.58105261697685
687.2932242751742 523 175.58105261697685
687.2932242751742 524 175.58105261697685
687.2932242751742 525 175.58105261697685
687.2932242751742 526 175.58105261697685
687.2932242751742 527 175.58105261697685
687.2932242751742 528 175.58105261697685
687.2932242751742 529 175.58105261697685
687.2932242751742 530 175.58105261697685
687.2932242751742 531 175.58105261697685
687.2932242751742 532 175.58105261697685
687.2932242751742 533 175.58105261697685
687.2932242751742 534 175.58105261697685
687.2932242751742 535 175.58105261697685
687.2932242751742 536 175.58105261697685
687.2932242751742 537 175.58105261697685
687.2932242751742 538 175.58105261697685
687.2932242751742 539 175.58105261697685
687.2932242751742 540 175.58105261697685
687.2932242751742 541 175.58105261697685
687.2932242751742 542 175.58105261697685
687.5334079456627 543 178.0196783477682
687.5334079456627 544 178.0196783477682
687.5334079456627 545 178.0196783477682
687.2932242751742 546 175.58105261697685
687.2932242751742 547 175.58105261697685
687.2932242751742 548 175.58105261697685
687.2932242751742 549 175.58105261697685
687.2932242751742 550 175.58105261697685
687.2932242751742 551 175.58105261697685
687.5334079456627 552 178.0196783477682
687.2932242751742 553 175.58105261697685
687.2932242751742 554 175.58105261697685
687.5334079456627 555 178.0196783477682
687.5334079456627 556 178.0196783477682
687.5334079456627 557 178.0196783477682
687.5334079456627 558 178.0196783477682
687.5334079456627 559 178.0196783477682
687.5334079456627 560 178.0196783477682
687.5334079456627 561 178.0196783477682
687.5334079456627 562 178.0196783477682
687.5334079456627 563 178.0196783477682
687.5334079456627 564 178.0196783477682
687.5334079456627 565 178.0196783477682
687.5334079456627 566 178.0196783477682
687.5334079456627 567 178.0196783477682
687.5334079456627 568 178.0196783477682
687.5334079456627 569 178.0196783477682
687.5334079456627 570 178.0196783477682
687.5334079456627 571 178.0196783477682
687.5334079456627 572 178.0196783477682
687.5334079456627 573 178.0196783477682
687.5334079456627 574 178.0196783477682
687.5334079456627 575 178.0196783477682
687.5334079456627 576 178.0196783477682
687.5334079456627 577 178.0196783477682
687.5334079456627 578 178.0196783477682
687.5334079456627 579 178.0196783477682
687.5334079456627 580 178.0196783477682
687.5334079456627 581 178.0196783477682
687.5334079456627 582 178.0196783477682
687.5334079456627 583 178.0196783477682
687.7735916161513 584 180.45830407855954
687.7735916161513 585 180.45830407855954
687.7735916161513 586 180.45830407855954
687.7735916161513 587 180.45830407855954
687.7735916161513 588 180.45830407855954
687.7735916161513 589 180.45830407855954
687.7735916161513 590 180.45830407855954
687.7735916161513 591 180.45830407855954
687.7735916161513 592 180.45830407855954
687.7735916161513 593 180.45830407855954
687.7735916161513 594 180.45830407855954
687.7735916161513 595 180.45830407855954
687.7735916161513 596 180.45830407855954
687.7735916161513 597 180.45830407855954
687.7735916161513 598 180.45830407855954
687.7735916161513 599 180.45830407855954
687.7735916161513 600 180.45830407855954
687.7735916161513 601 180.45830407855954
687.7735916161513 602 180.45830407855954
687.7735916161513 603 180.45830407855954
687.7735916161513 604 180.45830407855954
687.7735916161513 605 180.45830407855954
687.7735916161513 606 180.45830407855954
687.7735916161513 607 180.45830407855954
687.7735916161513 608 180.45830407855954
687.7735916161513 609 180.45830407855954
687.7735916161513 610 180.45830407855954
687.7735916161513 611 180.45830407855954
687.7735916161513 612 180.45830407855954
687.7735916161513 613 180.45830407855954
687.7735916161513 614 180.45830407855954
687.7735916161513 615 180.45830407855954
687.7735916161513 616 180.45830407855954
687.7735916161513 617 180.45830407855954
687.7735916161513 618 180.45830407855954
688.0137752866398 619 182.8969298093509
688.0137752866398 620 182.8969298093509
688.0137752866398 621 182.8969298093509
688.0137752866398 622 182.8969298093509
688.0137752866398 623 182.8969298093509
688.0137752866398 624 182.8969298093509
687.7735916161513 625 180.45830407855954
687.7735916161513 626 180.45830407855954
688.0137752866398 627 182.8969298093509
688.0137752866398 628 182.8969298093509
688.0137752866398 629 182.8969298093509
688.0137752866398 630 182.8969298093509
688.0137752866398 631 182.8969298093509
688.0137752866398 632 182.8969298093509
688.0137752866398 633 182.8969298093509
688.0137752866398 634 182.8969298093509
688.0137752866398 635 182.8969298093509
688.0137752866398 636 182.8969298093509
688.0137752866398 637 182.8969298093509
688.0137752866398 638 182.8969298093509
688.0137752866398 639 182.8969298093509
688.0137752866398 640 182.8969298093509
688.0137752866398 641 182.8969298093509
688.0137752866398 642 182.8969298093509
688.0137752866398 643 182.8969298093509
688.2539589571284 644 185.33555554014222
688.2539589571284 645 185.33555554014222
688.2539589571284 646 185.33555554014222
688.2539589571284 647 185.33555554014222
688.0137752866398 648 182.8969298093509
688.0137752866398 649 182.8969298093509
688.0137752866398 650 182.8969298093509
688.0137752866398 651 182.8969298093509
688.2539589571284 652 185.33555554014222
688.2539589571284 653 185.33555554014222
688.2539589571284 654 185.33555554014222
688.0137752866398 655 182.8969298093509
688.0137752866398 656 182.8969298093509
688.0137752866398 657 182.8969298093509
688.0137752866398 658 182.8969298093509
688.2539589571284 659 185.33555554014222
688.2539589571284 660 185.33555554014222
688.2539589571284 661 185.33555554014222
688.2539589571284 662 185.33555554014222
688.2539589571284 663 185.33555554014222
688.2539589571284 664 185.33555554014222
688.2539589571284 665 185.33555554014222
688.2539589571284 666 185.33555554014222
688.2539589571284 667 185.33555554014222
688.2539589571284 668 185.33555554014222
688.2539589571284 669 185.33555554014222
688.2539589571284 670 185.33555554014222
688.2539589571284 671 185.33555554014222
688.2539589571284 672 185.33555554014222
688.2539589571284 673 185.33555554014222
688.2539589571284 674 185.33555554014222
688.2539589571284 675 185.33555554014222
688.2539589571284 676 185.33555554014222
688.2539589571284 677 185.33555554014222
688.2539589571284 678 185.33555554014222
688.2539589571284 679 185.33555554014222
688.2539589571284 680 185.33555554014222
688.2539589571284 681 185.33555554014222
688.2539589571284 682 185.33555554014222
688.4941426276168 683 187.77418127093358
688.2539589571284 684 185.33555554014222
688.2539589571284 685 185.33555554014222
688.2539589571284 686 185.33555554014222
688.4941426276168 687 187.77418127093358
688.4941426276168 688 187.77418127093358
688.4941426276168 689 187.77418127093358
688.4941426276168 690 187.77418127093358
688.4941426276168 691 187.77418127093358
688.4941426276168 692 187.77418127093358
688.4941426276168 693 187.77418127093358
688.4941426276168 694 187.77418127093358
688.4941426276168 695 187.77418127093358
688.4941426276168 696 187.77418127093358
688.4941426276168 697 187.77418127093358
688.4941426276168 698 187.77418127093358
688.4941426276168 699 187.77418127093358
688.4941426276168 700 187.77418127093358
688.4941426276168 701 187.77418127093358
688.4941426276168 702 187.77418127093358
688.4941426276168 703 187.77418127093358
688.4941426276168 704 187.77418127093358
688.4941426276168 705 187.77418127093358
688.4941426276168 706 187.77418127093358
688.4941426276168 707 187.77418127093358
688.4941426276168 708 187.77418127093358
688.4941426276168 709 187.77418127093358
688.4941426276168 710 187.77418127093358
688.4941426276168 711 187.77418127093358
688.4941426276168 712 187.77418127093358
688.4941426276168 713 187.77418127093358
688.4941426276168 714 187.77418127093358
688.4941426276168 715 187.77418127093358
688.4941426276168 716 187.77418127093358
688.4941426276168 717 187.77418127093358
688.4941426276168 718 187.77418127093358
688.4941426276168 719 187.77418127093358
688.4941426276168 720 187.77418127093358
688.4941426276168 721 187.77418127093358
688.4941426276168 722 187.77418127093358
688.4941426276168 723 187.77418127093358
688.4941426276168 724 187.77418127093358
688.4941426276168 725 187.77418127093358
688.4941426276168 726 187.77418127093358
688.4941426276168 727 187.77418127093358
688.4941426276168 728 187.77418127093358
688.4941426276168 729 187.77418127093358
688.7343262981053 730 190.2128070017249
688.4941426276168 731 187.77418127093358
688.4941426276168 732 187.77418127093358
688.4941426276168 733 187.77418127093358
688.4941426276168 734 187.77418127093358
688.4941426276168 735 187.77418127093358
688.4941426276168 736 187.77418127093358
688.4941426276168 737 187.77418127093358
688.4941426276168 738 187.77418127093358
688.4941426276168 739 187.77418127093358
688.4941426276168 740 187.77418127093358
688.4941426276168 741 187.77418127093358
688.4941426276168 742 187.77418127093358
688.4941426276168 743 187.77418127093358
688.4941426276168 744 187.77418127093358
688.7343262981053 745 190.2128070017249
688.7343262981053 746 190.2128070017249
688.7343262981053 747 190.2128070017249
688.7343262981053 748 190.2128070017249
688.7343262981053 749 190.2128070017249
688.7343262981053 750 190.2128070017249
688.7343262981053 751 190.2128070017249
688.7343262981053 752 190.2128070017249
688.7343262981053 753 190.2128070017249
688.7343262981053 754 190.2128070017249
688.7343262981053 755 190.2128070017249
688.7343262981053 756 190.2128070017249
688.7343262981053 757 190.2128070017249
688.7343262981053 758 190.2128070017249
688.7343262981053 759 190.2128070017249
688.7343262981053 760 190.2128070017249
688.7343262981053 761 190.2128070017249
688.7343262981053 762 190.2128070017249
688.7343262981053 763 190.2128070017249
688.7343262981053 764 190.2128070017249
688.7343262981053 765 190.2128070017249
688.7343262981053 766 190.2128070017249
688.7343262981053 767 190.2128070017249
688.7343262981053 768 190.2128070017249
688.7343262981053 769 190.2128070017249
688.7343262981053 770 190.2128070017249
688.7343262981053 771 190.2128070017249
688.7343262981053 772 190.2128070017249
688.7343262981053 773 190.2128070017249
688.7343262981053 774 190.2128070017249
688.7343262981053 775 190.2128070017249
688.7343262981053 776 190.2128070017249
688.7343262981053 777 190.2128070017249
688.7343262981053 778 190.2128070017249
688.7343262981053 779 190.2128070017249
688.7343262981053 780 190.2128070017249
688.7343262981053 781 190.2128070017249
688.7343262981053 782 190.2128070017249
688.7343262981053 783 190.2128070017249
688.7343262981053 784 190.2128070017249
688.7343262981053 785 190.2128070017249
688.7343262981053 786 190.2128070017249
688.7343262981053 787 190.2128070017249
688.7343262981053 788 190.2128070017249
688.7343262981053 789 190.2128070017249
688.7343262981053 790 190.2128070017249
688.9745099685939 791 192.65143273251627
688.9745099685939 792 192.65143273251627
688.9745099685939 793 192.65143273251627
688.9745099685939 794 192.65143273251627
688.7343262981053 795 190.2128070017249
688.7343262981053 796 190.2128070017249
688.7343262981053 797 190.2128070017249
688.7343262981053 798 190.2128070017249
688.7343262981053 799 190.2128070017249
688.9745099685939 800 192.65143273251627
688.9745099685939 801 192.65143273251627
688.9745099685939 802 192.65143273251627
688.9745099685939 803 192.65143273251627
688.7343262981053 804 190.2128070017249
688.7343262981053 805 190.2128070017249
688.7343262981053 806 190.2128070017249
688.7343262981053 807 190.2128070017249
688.9745099685939 808 192.65143273251627
688.9745099685939 809 192.65143273251627
688.9745099685939 810 192.65143273251627
688.9745099685939 811 192.65143273251627
688.7343262981053 812 190.2128070017249
688.7343262981053 813 190.2128070017249
688.7343262981053 814 190.2128070017249
688.7343262981053 815 190.2128070017249
688.7343262981053 816 190.2128070017249
688.7343262981053 817 190.2128070017249
688.7343262981053 818 190.2128070017249
688.9745099685939 819 192.65143273251627
688.7343262981053 820 190.2128070017249
688.7343262981053 821 190.2128070017249
688.7343262981053 822 190.2128070017249
688.7343262981053 823 190.2128070017249
688.7343262981053 824 190.2128070017249
688.7343262981053 825 190.2128070017249
688.7343262981053 826 190.2128070017249
688.7343262981053 827 190.2128070017249
688.9745099685939 828 192.65143273251627
688.9745099685939 829 192.65143273251627
688.9745099685939 830 192.65143273251627
688.7343262981053 831 190.2128070017249
688.9745099685939 832 192.65143273251627
688.7343262981053 833 190.2128070017249
688.9745099685939 834 192.65143273251627
688.9745099685939 835 192.65143273251627
688.9745099685939 836 192.65143273251627
688.7343262981053 837 190.2128070017249
688.7343262981053 838 190.2128070017249
688.7343262981053 839 190.2128070017249
688.7343262981053 840 190.2128070017249
688.7343262981053 841 190.2128070017249
688.7343262981053 842 190.2128070017249
688.9745099685939 843 192.65143273251627
688.9745099685939 844 192.65143273251627
688.7343262981053 845 190.2128070017249
688.7343262981053 846 190.2128070017249
688.7343262981053 847 190.2128070017249
688.7343262981053 848 190.2128070017249
688.7343262981053 849 190.2128070017249
688.7343262981053 850 190.2128070017249
688.7343262981053 851 190.2128070017249
688.7343262981053 852 190.2128070017249
688.7343262981053 853 190.2128070017249
688.7343262981053 854 190.2128070017249
688.7343262981053 855 190.2128070017249
688.7343262981053 856 190.2128070017249
688.7343262981053 857 190.2128070017249
688.7343262981053 858 190.2128070017249
688.7343262981053 859 190.2128070017249
688.7343262981053 860 190.2128070017249
688.7343262981053 861 190.2128070017249
688.7343262981053 862 190.2128070017249
688.7343262981053 863 190.2128070017249
688.7343262981053 864 190.2128070017249
688.7343262981053 865 190.2128070017249
688.7343262981053 866 190.2128070017249
688.7343262981053 867 190.2128070017249
688.7343262981053 868 190.2128070017249
688.4941426276168 869 187.77418127093358
688.4941426276168 870 187.77418127093358
688.4941426276168 871 187.77418127093358
688.7343262981053 872 190.2128070017249
688.7343262981053 873 190.2128070017249
688.7343262981053 874 190.2128070017249
688.7343262981053 875 190.2128070017249
688.7343262981053 876 190.2128070017249
688.7343262981053 877 190.2128070017249
688.7343262981053 878 190.2128070017249
688.4941426276168 879 187.77418127093358
688.4941426276168 880 187.77418127093358
688.4941426276168 881 187.77418127093358
688.4941426276168 882 187.77418127093358
677.81538326229 354 159.08578097241107
677.81538326229 355 159.08578097241107
677.81538326229 356 159.08578097241107
677.9356199278637 357 161.5332545258328
677.9356199278637 358 161.5332545258328
678.0558565934374 359 163.9807280792545
678.0558565934374 360 163.9807280792545
678.0558565934374 361 163.9807280792545
678.0558565934374 362 163.9807280792545
678.0558565934374 363 163.9807280792545
678.0558565934374 364 163.9807280792545
678.0558565934374 365 163.9807280792545
678.0558565934374 366 163.9807280792545
678.0558565934374 367 163.9807280792545
678.0558565934374 368 163.9807280792545
678.0558565934374 369 163.9807280792545
677.9356199278637 370 161.5332545258328
677.9356199278637 371 161.5332545258328
677.9356199278637 372 161.5332545258328
677.9356199278637 373 161.5332545258328
677.9356199278637 374 161.5332545258328
677.9356199278637 375 161.5332545258328
677.9356199278637 376 161.5332545258328
677.9356199278637 377 161.5332545258328
677.9356199278637 378 161.5332545258328
677.9356199278637 379 161.5332545258328
677.9356199278637 380 161.5332545258328
677.9356199278637 381 161.5332545258328
677.9356199278637 382 161.5332545258328
677.9356199278637 383 161.5332545258328
677.9356199278637 384 161.5332545258328
677.9356199278637 385 161.5332545258328
677.9356199278637 386 161.5332545258328
677.9356199278637 387 161.5332545258328
678.0558565934374 388 163.9807280792545
678.0558565934374 389 163.9807280792545
678.0558565934374 390 163.9807280792545
678.0558565934374 391 163.9807280792545
678.0558565934374 392 163.9807280792545
678.0558565934374 393 163.9807280792545
678.0558565934374 394 163.9807280792545
678.0558565934374 395 163.9807280792545
678.0558565934374 396 163.9807280792545
678.0558565934374 397 163.9807280792545
678.0558565934374 398 163.9807280792545
678.0558565934374 399 163.9807280792545
678.0558565934374 400 163.9807280792545
678.0558565934374 401 163.9807280792545
678.0558565934374 402 163.9807280792545
678.0558565934374 403 163.9807280792545
678.0558565934374 404 163.9807280792545
678.0558565934374 405 163.9807280792545
678.0558565934374 406 163.9807280792545
678.0558565934374 407 163.9807280792545
678.0558565934374 408 163.9807280792545
678.0558565934374 409 163.9807280792545
678.0558565934374 410 163.9807280792545
678.0558565934374 411 163.9807280792545
678.0558565934374 412 163.9807280792545
678.0558565934374 413 163.9807280792545
678.0558565934374 414 163.9807280792545
678.0558565934374 415 163.9807280792545
678.176093259011 416 166.42820163267618
678.176093259011 417 166.42820163267618
678.176093259011 418 166.42820163267618
678.176093259011 419 166.42820163267618
678.176093259011 420 166.42820163267618
678.176093259011 421 166.42820163267618
678.176093259011 422 166.42820163267618
678.176093259011 423 166.42820163267618
678.176093259011 424 166.42820163267618
678.176093259011 425 166.42820163267618
678.2963299245848 426 168.87567518609788
678.2963299245848 427 168.87567518609788
678.2963299245848 428 168.87567518609788
678.2963299245848 429 168.87567518609788
678.176093259011 430 166.42820163267618
678.176093259011 431 166.42820163267618
678.176093259011 432 166.42820163267618
678.176093259011 433 166.42820163267618
678.176093259011 434 166.42820163267618
678.176093259011 435 166.42820163267618
