691.4226224208365 695 -49.47008930081494
691.4226224208365 696 -49.47008930081494
691.4226224208365 697 -49.47008930081494
691.4226224208365 698 -49.47008930081494
691.4226224208365 699 -49.47008930081494
691.4226224208365 700 -49.47008930081494
691.4226224208365 701 -49.47008930081494
691.4226224208365 702 -49.47008930081494
691.4226224208365 703 -49.47008930081494
691.4226224208365 704 -49.47008930081494
691.4226224208365 705 -49.47008930081494
691.4226224208365 706 -49.47008930081494
691.4226224208365 707 -49.47008930081494
691.4226224208365 708 -49.47008930081494
691.4226224208365 709 -49.47008930081494
691.4226224208365 710 -49.47008930081494
691.4226224208365 711 -49.47008930081494
691.4226224208365 712 -49.47008930081494
691.4226224208365 713 -49.47008930081494
691.4226224208365 714 -49.47008930081494
690.4488668562531 715 -47.22144887805063
691.4226224208365 716 -49.47008930081494
691.4226224208365 717 -49.47008930081494
691.4226224208365 718 -49.47008930081494
690.4488668562531 719 -47.22144887805063
690.4488668562531 720 -47.22144887805063
690.4488668562531 721 -47.22144887805063
690.4488668562531 722 -47.22144887805063
690.4488668562531 723 -47.22144887805063
690.4488668562531 724 -47.22144887805063
690.4488668562531 725 -47.22144887805063
691.4226224208365 726 -49.47008930081494
691.4226224208365 727 -49.47008930081494
691.4226224208365 728 -49.47008930081494
690.4488668562531 729 -47.22144887805063
690.4488668562531 730 -47.22144887805063
691.4226224208365 731 -49.47008930081494
691.4226224208365 732 -49.47008930081494
691.4226224208365 733 -49.47008930081494
691.4226224208365 734 -49.47008930081494
691.4226224208365 735 -49.47008930081494
691.4226224208365 736 -49.47008930081494
691.4226224208365 737 -49.47008930081494
691.4226224208365 738 -49.47008930081494
691.4226224208365 739 -49.47008930081494
691.4226224208365 740 -49.47008930081494
691.4226224208365 741 -49.47008930081494
691.4226224208365 742 -49.47008930081494
691.4226224208365 743 -49.47008930081494
691.4226224208365 744 -49.47008930081494
691.4226224208365 745 -49.47008930081494
691.4226224208365 746 -49.47008930081494
691.4226224208365 747 -49.47008930081494
691.4226224208365 748 -49.47008930081494
691.4226224208365 749 -49.47008930081494
691.4226224208365 750 -49.47008930081494
691.4226224208365 751 -49.47008930081494
691.4226224208365 752 -49.47008930081494
691.4226224208365 753 -49.47008930081494
691.4226224208365 754 -49.47008930081494
691.4226224208365 755 -49.47008930081494
691.4226224208365 756 -49.47008930081494
691.4226224208365 757 -49.47008930081494
691.4226224208365 758 -49.47008930081494
691.4226224208365 759 -49.47008930081494
691.4226224208365 760 -49.47008930081494
691.4226224208365 761 -49.47008930081494
691.4226224208365 762 -49.47008930081494
691.4226224208365 763 -49.47008930081494
691.4226224208365 764 -49.47008930081494
691.4226224208365 765 -49.47008930081494
691.4226224208365 766 -49.47008930081494
691.4226224208365 767 -49.47008930081494
691.4226224208365 768 -49.47008930081494
691.4226224208365 769 -49.47008930081494
691.4226224208365 770 -49.47008930081494
691.4226224208365 771 -49.47008930081494
691.4226224208365 772 -49.47008930081494
691.4226224208365 773 -49.47008930081494
691.4226224208365 774 -49.47008930081494
691.4226224208365 775 -49.47008930081494
673.8950222583339 779 -8.994561691057262
673.8950222583339 780 -8.994561691057262
673.8950222583339 781 -8.994561691057262
673.8950222583339 782 -8.994561691057262
673.8950222583339 783 -8.994561691057262
673.8950222583339 784 -8.994561691057262
673.8950222583339 785 -8.994561691057262
673.8950222583339 786 -8.994561691057262
673.8950222583339 787 -8.994561691057262
673.8950222583339 788 -8.994561691057262
673.8950222583339 789 -8.994561691057262
671.0873022715122 552 -2.1959866622571655
671.0873022715122 553 -2.1959866622571655
671.0873022715122 554 -2.1959866622571655
671.0873022715122 555 -2.1959866622571655
671.0873022715122 556 -2.1959866622571655
671.0873022715122 557 -2.1959866622571655
671.0873022715122 558 -2.1959866622571655
671.0873022715122 559 -2.1959866622571655
671.0873022715122 560 -2.1959866622571655
671.0873022715122 561 -2.1959866622571655
672.1746045430244 562 -4.391973324514331
672.1746045430244 563 -4.391973324514331
673.2619068145366 564 -6.587959986771496
678.6984181720976 568 -17.567893298057324
679.7857204436099 569 -19.76387996031449
679.7857204436099 570 -19.76387996031449
680.873022715122 571 -21.959866622571653
680.873022715122 572 -21.959866622571653
681.9603249866343 573 -24.155853284828822
683.0476272581465 574 -26.351839947085985
683.0476272581465 575 -26.351839947085985
684.1349295296586 576 -28.54782660934315
684.1349295296586 577 -28.54782660934315
684.1349295296586 578 -28.54782660934315
684.1349295296586 579 -28.54782660934315
685.2222318011709 580 -30.74381327160032
685.2222318011709 581 -30.74381327160032
686.309534072683 582 -32.939799933857486
686.309534072683 583 -32.939799933857486
687.3968363441953 584 -35.13578659611465
687.3968363441953 585 -35.13578659611465
687.3968363441953 586 -35.13578659611465
687.3968363441953 587 -35.13578659611465
688.4841386157075 588 -37.33177325837181
688.4841386157075 589 -37.33177325837181
688.4841386157075 590 -37.33177325837181
688.4841386157075 591 -37.33177325837181
690.6587431587319 592 -41.72374658288614
690.6587431587319 593 -41.72374658288614
691.7460454302441 594 -43.919733245143306
691.7460454302441 595 -43.919733245143306
692.8333477017563 596 -46.115719907400475
692.8333477017563 597 -46.115719907400475
692.8333477017563 598 -46.115719907400475
692.8333477017563 599 -46.115719907400475
693.9206499732685 600 -48.311706569657645
693.9206499732685 601 -48.311706569657645
693.9206499732685 602 -48.311706569657645
693.9206499732685 603 -48.311706569657645
693.9206499732685 604 -48.311706569657645
693.9206499732685 605 -48.311706569657645
693.9206499732685 606 -48.311706569657645
693.9206499732685 607 -48.311706569657645
693.9206499732685 608 -48.311706569657645
693.9206499732685 609 -48.311706569657645
693.9206499732685 610 -48.311706569657645
693.9206499732685 611 -48.311706569657645
693.9206499732685 612 -48.311706569657645
693.9206499732685 613 -48.311706569657645
693.9206499732685 614 -48.311706569657645
693.9206499732685 615 -48.311706569657645
693.9206499732685 616 -48.311706569657645
693.9206499732685 617 -48.311706569657645
693.9206499732685 618 -48.311706569657645
693.9206499732685 619 -48.311706569657645
693.9206499732685 620 -48.311706569657645
693.9206499732685 621 -48.311706569657645
693.9206499732685 622 -48.311706569657645
693.9206499732685 623 -48.311706569657645
693.9206499732685 624 -48.311706569657645
693.9206499732685 625 -48.311706569657645
693.9206499732685 626 -48.311706569657645
693.9206499732685 627 -48.311706569657645
693.9206499732685 628 -48.311706569657645
693.9206499732685 629 -48.311706569657645
693.9206499732685 630 -48.311706569657645
692.8333477017563 631 -46.115719907400475
692.8333477017563 632 -46.115719907400475
692.8333477017563 633 -46.115719907400475
692.8333477017563 634 -46.115719907400475
692.8333477017563 635 -46.115719907400475
692.8333477017563 636 -46.115719907400475
692.8333477017563 637 -46.115719907400475
692.8333477017563 638 -46.115719907400475
692.8333477017563 639 -46.115719907400475
692.8333477017563 640 -46.115719907400475
692.8333477017563 641 -46.115719907400475
692.8333477017563 642 -46.115719907400475
692.8333477017563 643 -46.115719907400475
692.8333477017563 644 -46.115719907400475
692.8333477017563 645 -46.115719907400475
693.9206499732685 646 -48.311706569657645
692.8333477017563 647 -46.115719907400475
693.9206499732685 648 -48.311706569657645
693.9206499732685 649 -48.311706569657645
693.9206499732685 650 -48.311706569657645
693.9206499732685 651 -48.311706569657645
693.9206499732685 652 -48.311706569657645
693.9206499732685 653 -48.311706569657645
693.9206499732685 654 -48.311706569657645
693.9206499732685 655 -48.311706569657645
693.9206499732685 656 -48.311706569657645
693.9206499732685 657 -48.311706569657645
693.9206499732685 658 -48.311706569657645
693.9206499732685 659 -48.311706569657645
693.9206499732685 660 -48.311706569657645
693.9206499732685 661 -48.311706569657645
693.9206499732685 662 -48.311706569657645
693.9206499732685 663 -48.311706569657645
693.9206499732685 664 -48.311706569657645
693.9206499732685 665 -48.311706569657645
693.9206499732685 666 -48.311706569657645
693.9206499732685 667 -48.311706569657645
693.9206499732685 668 -48.311706569657645
693.9206499732685 669 -48.311706569657645
693.9206499732685 670 -48.311706569657645
693.9206499732685 671 -48.311706569657645
693.9206499732685 672 -48.311706569657645
693.9206499732685 673 -48.311706569657645
693.9206499732685 674 -48.311706569657645
693.9206499732685 675 -48.311706569657645
693.9206499732685 676 -48.311706569657645
693.9206499732685 677 -48.311706569657645
693.9206499732685 678 -48.311706569657645
693.9206499732685 679 -48.311706569657645
693.9206499732685 680 -48.311706569657645
693.9206499732685 681 -48.311706569657645
693.9206499732685 682 -48.311706569657645
693.9206499732685 683 -48.311706569657645
693.9206499732685 684 -48.311706569657645
693.9206499732685 685 -48.311706569657645
693.9206499732685 686 -48.311706569657645
693.9206499732685 687 -48.311706569657645
693.9206499732685 688 -48.311706569657645
693.9206499732685 689 -48.311706569657645
693.9206499732685 690 -48.311706569657645
693.9206499732685 691 -48.311706569657645
693.9206499732685 692 -48.311706569657645
693.9206499732685 693 -48.311706569657645
693.9206499732685 694 -48.311706569657645
693.9206499732685 695 -48.311706569657645
693.9206499732685 696 -48.311706569657645
693.9206499732685 697 -48.311706569657645
693.9206499732685 698 -48.311706569657645
693.9206499732685 699 -48.311706569657645
693.9206499732685 700 -48.311706569657645
693.9206499732685 701 -48.311706569657645
693.9206499732685 702 -48.311706569657645
693.9206499732685 703 -48.311706569657645
693.9206499732685 704 -48.311706569657645
693.9206499732685 705 -48.311706569657645
693.9206499732685 706 -48.311706569657645
693.9206499732685 707 -48.311706569657645
693.9206499732685 708 -48.311706569657645
693.9206499732685 709 -48.311706569657645
693.9206499732685 710 -48.311706569657645
693.9206499732685 711 -48.311706569657645
693.9206499732685 712 -48.311706569657645
693.9206499732685 713 -48.311706569657645
693.9206499732685 714 -48.311706569657645
693.9206499732685 715 -48.311706569657645
693.9206499732685 716 -48.311706569657645
693.9206499732685 717 -48.311706569657645
693.9206499732685 718 -48.311706569657645
693.9206499732685 719 -48.311706569657645
693.9206499732685 720 -48.311706569657645
693.9206499732685 721 -48.311706569657645
693.9206499732685 722 -48.311706569657645
693.9206499732685 723 -48.311706569657645
693.9206499732685 724 -48.311706569657645
693.9206499732685 725 -48.311706569657645
693.9206499732685 726 -48.311706569657645
693.9206499732685 727 -48.311706569657645
693.9206499732685 728 -48.311706569657645
693.9206499732685 729 -48.311706569657645
693.9206499732685 730 -48.311706569657645
693.9206499732685 731 -48.311706569657645
693.9206499732685 732 -48.311706569657645
693.9206499732685 733 -48.311706569657645
693.9206499732685 734 -48.311706569657645
693.9206499732685 735 -48.311706569657645
693.9206499732685 736 -48.311706569657645
693.9206499732685 737 -48.311706569657645
693.9206499732685 738 -48.311706569657645
693.9206499732685 739 -48.311706569657645
693.9206499732685 740 -48.311706569657645
693.9206499732685 741 -48.311706569657645
693.9206499732685 742 -48.311706569657645
693.9206499732685 743 -48.311706569657645
693.9206499732685 744 -48.311706569657645
693.9206499732685 745 -48.311706569657645
693.9206499732685 746 -48.311706569657645
693.9206499732685 747 -48.311706569657645
693.9206499732685 748 -48.311706569657645
693.9206499732685 749 -48.311706569657645
693.9206499732685 750 -48.311706569657645
693.9206499732685 751 -48.311706569657645
693.9206499732685 752 -48.311706569657645
693.9206499732685 753 -48.311706569657645
693.9206499732685 754 -48.311706569657645
693.9206499732685 755 -48.311706569657645
693.9206499732685 756 -48.311706569657645
693.9206499732685 757 -48.311706569657645
693.9206499732685 758 -48.311706569657645
693.9206499732685 759 -48.311706569657645
693.9206499732685 760 -48.311706569657645
693.9206499732685 761 -48.311706569657645
693.9206499732685 762 -48.311706569657645
693.9206499732685 763 -48.311706569657645
693.9206499732685 764 -48.311706569657645
693.9206499732685 765 -48.311706569657645
693.9206499732685 766 -48.311706569657645
693.9206499732685 767 -48.311706569657645
693.9206499732685 768 -48.311706569657645
693.9206499732685 769 -48.311706569657645
693.9206499732685 770 -48.311706569657645
693.9206499732685 771 -48.311706569657645
693.9206499732685 772 -48.311706569657645
693.9206499732685 773 -48.311706569657645
693.9206499732685 774 -48.311706569657645
693.9206499732685 775 -48.311706569657645
674.3492090860489 779 -8.783946649028662
674.3492090860489 780 -8.783946649028662
674.3492090860489 781 -8.783946649028662
675.436511357561 782 -10.979933311285826
674.3492090860489 783 -8.783946649028662
674.3492090860489 784 -8.783946649028662
675.436511357561 785 -10.979933311285826
675.436511357561 786 -10.979933311285826
675.436511357561 787 -10.979933311285826
675.436511357561 788 -10.979933311285826
675.436511357561 789 -10.979933311285826
671.1980123309611 552 -2.1376038232825616
671.1980123309611 553 -2.1376038232825616
672.3960246619221 554 -4.275207646565123
672.3960246619221 555 -4.275207646565123
672.3960246619221 556 -4.275207646565123
673.5940369928832 557 -6.412811469847685
673.5940369928832 558 -6.412811469847685
673.5940369928832 559 -6.412811469847685
672.3960246619221 560 -4.275207646565123
672.3960246619221 561 -4.275207646565123
672.3960246619221 562 -4.275207646565123
673.5940369928832 563 -6.412811469847685
673.5940369928832 564 -6.412811469847685
674.7920493238443 565 -8.550415293130246
675.9900616548052 566 -10.688019116412807
679.5840986476884 568 -17.100830586260493
679.5840986476884 569 -17.100830586260493
680.7821109786495 570 -19.238434409543054
680.7821109786495 571 -19.238434409543054
683.1781356405716 572 -23.51364205610818
684.3761479715326 573 -25.65124587939074
684.3761479715326 574 -25.65124587939074
684.3761479715326 575 -25.65124587939074
685.5741603024937 576 -27.7888497026733
685.5741603024937 577 -27.7888497026733
685.5741603024937 578 -27.7888497026733
686.7721726334547 579 -29.926453525955864
686.7721726334547 580 -29.926453525955864
687.9701849644158 581 -32.064057349238425
687.9701849644158 582 -32.064057349238425
689.1681972953769 583 -34.201661172520986
689.1681972953769 584 -34.201661172520986
689.1681972953769 585 -34.201661172520986
689.1681972953769 586 -34.201661172520986
690.3662096263379 587 -36.339264995803546
690.3662096263379 588 -36.339264995803546
690.3662096263379 589 -36.339264995803546
690.3662096263379 590 -36.339264995803546
691.564221957299 591 -38.47686881908611
692.7622342882601 592 -40.61447264236867
692.7622342882601 593 -40.61447264236867
693.9602466192212 594 -42.75207646565123
693.9602466192212 595 -42.75207646565123
693.9602466192212 596 -42.75207646565123
693.9602466192212 597 -42.75207646565123
695.1582589501821 598 -44.889680288933796
695.1582589501821 599 -44.889680288933796
695.1582589501821 600 -44.889680288933796
695.1582589501821 601 -44.889680288933796
695.1582589501821 602 -44.889680288933796
695.1582589501821 603 -44.889680288933796
695.1582589501821 604 -44.889680288933796
695.1582589501821 605 -44.889680288933796
695.1582589501821 606 -44.889680288933796
695.1582589501821 607 -44.889680288933796
696.3562712811432 608 -47.02728411221636
697.5542836121043 609 -49.16488793549892
697.5542836121043 610 -49.16488793549892
697.5542836121043 611 -49.16488793549892
697.5542836121043 612 -49.16488793549892
697.5542836121043 613 -49.16488793549892
697.5542836121043 614 -49.16488793549892
696.3562712811432 615 -47.02728411221636
696.3562712811432 616 -47.02728411221636
696.3562712811432 617 -47.02728411221636
696.3562712811432 618 -47.02728411221636
696.3562712811432 619 -47.02728411221636
696.3562712811432 620 -47.02728411221636
696.3562712811432 621 -47.02728411221636
696.3562712811432 622 -47.02728411221636
696.3562712811432 623 -47.02728411221636
696.3562712811432 624 -47.02728411221636
696.3562712811432 625 -47.02728411221636
697.5542836121043 626 -49.16488793549892
697.5542836121043 627 -49.16488793549892
696.3562712811432 628 -47.02728411221636
696.3562712811432 629 -47.02728411221636
696.3562712811432 630 -47.02728411221636
695.1582589501821 631 -44.889680288933796
696.3562712811432 632 -47.02728411221636
696.3562712811432 633 -47.02728411221636
696.3562712811432 634 -47.02728411221636
696.3562712811432 635 -47.02728411221636
695.1582589501821 636 -44.889680288933796
696.3562712811432 637 -47.02728411221636
696.3562712811432 638 -47.02728411221636
696.3562712811432 639 -47.02728411221636
696.3562712811432 640 -47.02728411221636
696.3562712811432 641 -47.02728411221636
696.3562712811432 642 -47.02728411221636
696.3562712811432 643 -47.02728411221636
696.3562712811432 644 -47.02728411221636
696.3562712811432 645 -47.02728411221636
696.3562712811432 646 -47.02728411221636
696.3562712811432 647 -47.02728411221636
696.3562712811432 648 -47.02728411221636
696.3562712811432 649 -47.02728411221636
697.5542836121043 650 -49.16488793549892
697.5542836121043 651 -49.16488793549892
697.5542836121043 652 -49.16488793549892
697.5542836121043 653 -49.16488793549892
697.5542836121043 654 -49.16488793549892
697.5542836121043 655 -49.16488793549892
697.5542836121043 656 -49.16488793549892
696.3562712811432 657 -47.02728411221636
696.3562712811432 658 -47.02728411221636
696.3562712811432 659 -47.02728411221636
696.3562712811432 660 -47.02728411221636
697.5542836121043 661 -49.16488793549892
697.5542836121043 662 -49.16488793549892
697.5542836121043 663 -49.16488793549892
697.5542836121043 664 -49.16488793549892
696.3562712811432 665 -47.02728411221636
696.3562712811432 666 -47.02728411221636
696.3562712811432 667 -47.02728411221636
696.3562712811432 668 -47.02728411221636
697.5542836121043 669 -49.16488793549892
697.5542836121043 670 -49.16488793549892
696.3562712811432 671 -47.02728411221636
697.5542836121043 672 -49.16488793549892
697.5542836121043 673 -49.16488793549892
697.5542836121043 674 -49.16488793549892
696.3562712811432 675 -47.02728411221636
696.3562712811432 676 -47.02728411221636
696.3562712811432 677 -47.02728411221636
696.3562712811432 678 -47.02728411221636
696.3562712811432 679 -47.02728411221636
696.3562712811432 680 -47.02728411221636
696.3562712811432 681 -47.02728411221636
696.3562712811432 682 -47.02728411221636
696.3562712811432 683 -47.02728411221636
696.3562712811432 684 -47.02728411221636
696.3562712811432 685 -47.02728411221636
696.3562712811432 686 -47.02728411221636
696.3562712811432 687 -47.02728411221636
696.3562712811432 688 -47.02728411221636
696.3562712811432 689 -47.02728411221636
696.3562712811432 690 -47.02728411221636
696.3562712811432 691 -47.02728411221636
696.3562712811432 692 -47.02728411221636
696.3562712811432 693 -47.02728411221636
696.3562712811432 694 -47.02728411221636
696.3562712811432 695 -47.02728411221636
696.3562712811432 696 -47.02728411221636
696.3562712811432 697 -47.02728411221636
696.3562712811432 698 -47.02728411221636
696.3562712811432 699 -47.02728411221636
696.3562712811432 700 -47.02728411221636
696.3562712811432 701 -47.02728411221636
696.3562712811432 702 -47.02728411221636
696.3562712811432 703 -47.02728411221636
696.3562712811432 704 -47.02728411221636
696.3562712811432 705 -47.02728411221636
696.3562712811432 706 -47.02728411221636
696.3562712811432 707 -47.02728411221636
696.3562712811432 708 -47.02728411221636
696.3562712811432 709 -47.02728411221636
696.3562712811432 710 -47.02728411221636
696.3562712811432 711 -47.02728411221636
696.3562712811432 712 -47.02728411221636
696.3562712811432 713 -47.02728411221636
696.3562712811432 714 -47.02728411221636
696.3562712811432 715 -47.02728411221636
696.3562712811432 716 -47.02728411221636
696.3562712811432 717 -47.02728411221636
696.3562712811432 718 -47.02728411221636
696.3562712811432 719 -47.02728411221636
696.3562712811432 720 -47.02728411221636
696.3562712811432 721 -47.02728411221636
696.3562712811432 722 -47.02728411221636
696.3562712811432 723 -47.02728411221636
696.3562712811432 724 -47.02728411221636
696.3562712811432 725 -47.02728411221636
696.3562712811432 726 -47.02728411221636
696.3562712811432 727 -47.02728411221636
696.3562712811432 728 -47.02728411221636
696.3562712811432 729 -47.02728411221636
696.3562712811432 730 -47.02728411221636
696.3562712811432 731 -47.02728411221636
696.3562712811432 732 -47.02728411221636
696.3562712811432 733 -47.02728411221636
696.3562712811432 734 -47.02728411221636
696.3562712811432 735 -47.02728411221636
696.3562712811432 736 -47.02728411221636
696.3562712811432 737 -47.02728411221636
696.3562712811432 738 -47.02728411221636
696.3562712811432 739 -47.02728411221636
697.5542836121043 740 -49.16488793549892
697.5542836121043 741 -49.16488793549892
696.3562712811432 742 -47.02728411221636
696.3562712811432 743 -47.02728411221636
696.3562712811432 744 -47.02728411221636
696.3562712811432 745 -47.02728411221636
696.3562712811432 746 -47.02728411221636
696.3562712811432 747 -47.02728411221636
696.3562712811432 748 -47.02728411221636
696.3562712811432 749 -47.02728411221636
696.3562712811432 750 -47.02728411221636
696.3562712811432 751 -47.02728411221636
696.3562712811432 752 -47.02728411221636
696.3562712811432 753 -47.02728411221636
696.3562712811432 754 -47.02728411221636
696.3562712811432 755 -47.02728411221636
696.3562712811432 756 -47.02728411221636
696.3562712811432 757 -47.02728411221636
696.3562712811432 758 -47.02728411221636
696.3562712811432 759 -47.02728411221636
696.3562712811432 760 -47.02728411221636
696.3562712811432 761 -47.02728411221636
696.3562712811432 762 -47.02728411221636
696.3562712811432 763 -47.02728411221636
696.3562712811432 764 -47.02728411221636
696.3562712811432 765 -47.02728411221636
696.3562712811432 766 -47.02728411221636
696.3562712811432 767 -47.02728411221636
696.3562712811432 768 -47.02728411221636
696.3562712811432 769 -47.02728411221636
696.3562712811432 770 -47.02728411221636
696.3562712811432 771 -47.02728411221636
696.3562712811432 772 -47.02728411221636
697.5542836121043 773 -49.16488793549892
697.5542836121043 774 -49.16488793549892
697.5542836121043 775 -49.16488793549892
674.7920493238443 779 -8.550415293130246
674.7920493238443 780 -8.550415293130246
675.9900616548052 781 -10.688019116412807
675.9900616548052 782 -10.688019116412807
675.9900616548052 783 -10.688019116412807
675.9900616548052 784 -10.688019116412807
675.9900616548052 785 -10.688019116412807
675.9900616548052 786 -10.688019116412807
675.9900616548052 787 -10.688019116412807
675.9900616548052 788 -10.688019116412807
675.9900616548052 789 -10.688019116412807
673.9167907390769 553 -6.220932660003978
673.9167907390769 554 -6.220932660003978
672.6111938260512 555 -4.147288440002652
672.6111938260512 556 -4.147288440002652
673.9167907390769 557 -6.220932660003978
673.9167907390769 558 -6.220932660003978
673.9167907390769 559 -6.220932660003978
675.2223876521025 560 -8.294576880005303
673.9167907390769 561 -6.220932660003978
673.9167907390769 562 -6.220932660003978
673.9167907390769 563 -6.220932660003978
675.2223876521025 564 -8.294576880005303
676.5279845651281 565 -10.368221100006629
680.444775304205 568 -16.589153760010607
681.7503722172307 569 -18.662797980011934
681.7503722172307 570 -18.662797980011934
683.0559691302564 571 -20.736442200013258
684.361566043282 572 -22.810086420014585
685.6671629563076 573 -24.883730640015912
685.6671629563076 574 -24.883730640015912
686.9727598693332 575 -26.957374860017236
686.9727598693332 576 -26.957374860017236
686.9727598693332 577 -26.957374860017236
686.9727598693332 578 -26.957374860017236
688.2783567823589 579 -29.031019080018567
688.2783567823589 580 -29.031019080018567
689.5839536953845 581 -31.10466330001989
689.5839536953845 582 -31.10466330001989
689.5839536953845 583 -31.10466330001989
690.8895506084101 584 -33.178307520021214
690.8895506084101 585 -33.178307520021214
690.8895506084101 586 -33.178307520021214
692.1951475214357 587 -35.25195174002254
692.1951475214357 588 -35.25195174002254
692.1951475214357 589 -35.25195174002254
692.1951475214357 590 -35.25195174002254
692.1951475214357 591 -35.25195174002254
696.1119382605126 592 -41.472884400026516
696.1119382605126 593 -41.472884400026516
696.1119382605126 594 -41.472884400026516
696.1119382605126 595 -41.472884400026516
696.1119382605126 596 -41.472884400026516
697.4175351735382 597 -43.54652862002785
697.4175351735382 598 -43.54652862002785
697.4175351735382 599 -43.54652862002785
697.4175351735382 600 -43.54652862002785
697.4175351735382 601 -43.54652862002785
697.4175351735382 602 -43.54652862002785
697.4175351735382 603 -43.54652862002785
697.4175351735382 604 -43.54652862002785
697.4175351735382 605 -43.54652862002785
698.7231320865639 606 -45.62017284002917
698.7231320865639 607 -45.62017284002917
698.7231320865639 608 -45.62017284002917
698.7231320865639 609 -45.62017284002917
700.0287289995895 610 -47.6938170600305
700.0287289995895 611 -47.6938170600305
700.0287289995895 612 -47.6938170600305
700.0287289995895 613 -47.6938170600305
700.0287289995895 614 -47.6938170600305
700.0287289995895 615 -47.6938170600305
700.0287289995895 616 -47.6938170600305
700.0287289995895 617 -47.6938170600305
700.0287289995895 618 -47.6938170600305
700.0287289995895 619 -47.6938170600305
700.0287289995895 620 -47.6938170600305
700.0287289995895 621 -47.6938170600305
700.0287289995895 622 -47.6938170600305
700.0287289995895 623 -47.6938170600305
700.0287289995895 624 -47.6938170600305
700.0287289995895 625 -47.6938170600305
700.0287289995895 626 -47.6938170600305
700.0287289995895 627 -47.6938170600305
698.7231320865639 628 -45.62017284002917
698.7231320865639 629 -45.62017284002917
698.7231320865639 630 -45.62017284002917
698.7231320865639 631 -45.62017284002917
698.7231320865639 632 -45.62017284002917
698.7231320865639 633 -45.62017284002917
698.7231320865639 634 -45.62017284002917
698.7231320865639 635 -45.62017284002917
698.7231320865639 636 -45.62017284002917
700.0287289995895 637 -47.6938170600305
700.0287289995895 638 -47.6938170600305
700.0287289995895 639 -47.6938170600305
700.0287289995895 640 -47.6938170600305
700.0287289995895 641 -47.6938170600305
700.0287289995895 642 -47.6938170600305
700.0287289995895 643 -47.6938170600305
700.0287289995895 644 -47.6938170600305
700.0287289995895 645 -47.6938170600305
700.0287289995895 646 -47.6938170600305
700.0287289995895 647 -47.6938170600305
700.0287289995895 648 -47.6938170600305
700.0287289995895 649 -47.6938170600305
700.0287289995895 650 -47.6938170600305
700.0287289995895 651 -47.6938170600305
700.0287289995895 652 -47.6938170600305
700.0287289995895 653 -47.6938170600305
700.0287289995895 654 -47.6938170600305
700.0287289995895 655 -47.6938170600305
700.0287289995895 656 -47.6938170600305
700.0287289995895 657 -47.6938170600305
698.7231320865639 658 -45.62017284002917
700.0287289995895 659 -47.6938170600305
700.0287289995895 660 -47.6938170600305
700.0287289995895 661 -47.6938170600305
700.0287289995895 662 -47.6938170600305
700.0287289995895 663 -47.6938170600305
700.0287289995895 664 -47.6938170600305
700.0287289995895 665 -47.6938170600305
700.0287289995895 666 -47.6938170600305
700.0287289995895 667 -47.6938170600305
700.0287289995895 668 -47.6938170600305
700.0287289995895 669 -47.6938170600305
700.0287289995895 670 -47.6938170600305
700.0287289995895 671 -47.6938170600305
700.0287289995895 672 -47.6938170600305
700.0287289995895 673 -47.6938170600305
700.0287289995895 674 -47.6938170600305
700.0287289995895 675 -47.6938170600305
700.0287289995895 676 -47.6938170600305
700.0287289995895 677 -47.6938170600305
700.0287289995895 678 -47.6938170600305
700.0287289995895 679 -47.6938170600305
700.0287289995895 680 -47.6938170600305
700.0287289995895 681 -47.6938170600305
700.0287289995895 682 -47.6938170600305
700.0287289995895 683 -47.6938170600305
700.0287289995895 684 -47.6938170600305
700.0287289995895 685 -47.6938170600305
700.0287289995895 686 -47.6938170600305
700.0287289995895 687 -47.6938170600305
700.0287289995895 688 -47.6938170600305
700.0287289995895 689 -47.6938170600305
700.0287289995895 690 -47.6938170600305
700.0287289995895 691 -47.6938170600305
700.0287289995895 692 -47.6938170600305
700.0287289995895 693 -47.6938170600305
700.0287289995895 694 -47.6938170600305
700.0287289995895 695 -47.6938170600305
700.0287289995895 696 -47.6938170600305
700.0287289995895 697 -47.6938170600305
700.0287289995895 698 -47.6938170600305
700.0287289995895 699 -47.6938170600305
700.0287289995895 700 -47.6938170600305
700.0287289995895 701 -47.6938170600305
700.0287289995895 702 -47.6938170600305
700.0287289995895 703 -47.6938170600305
700.0287289995895 704 -47.6938170600305
700.0287289995895 705 -47.6938170600305
700.0287289995895 706 -47.6938170600305
700.0287289995895 707 -47.6938170600305
700.0287289995895 708 -47.6938170600305
700.0287289995895 709 -47.6938170600305
700.0287289995895 710 -47.6938170600305
700.0287289995895 711 -47.6938170600305
700.0287289995895 712 -47.6938170600305
700.0287289995895 713 -47.6938170600305
700.0287289995895 714 -47.6938170600305
700.0287289995895 715 -47.6938170600305
700.0287289995895 716 -47.6938170600305
700.0287289995895 717 -47.6938170600305
700.0287289995895 718 -47.6938170600305
700.0287289995895 719 -47.6938170600305
700.0287289995895 720 -47.6938170600305
700.0287289995895 721 -47.6938170600305
700.0287289995895 722 -47.6938170600305
700.0287289995895 723 -47.6938170600305
700.0287289995895 724 -47.6938170600305
700.0287289995895 725 -47.6938170600305
700.0287289995895 726 -47.6938170600305
700.0287289995895 727 -47.6938170600305
700.0287289995895 728 -47.6938170600305
698.7231320865639 729 -45.62017284002917
700.0287289995895 730 -47.6938170600305
700.0287289995895 731 -47.6938170600305
700.0287289995895 732 -47.6938170600305
700.0287289995895 733 -47.6938170600305
698.7231320865639 734 -45.62017284002917
700.0287289995895 735 -47.6938170600305
700.0287289995895 736 -47.6938170600305
700.0287289995895 737 -47.6938170600305
700.0287289995895 738 -47.6938170600305
700.0287289995895 739 -47.6938170600305
700.0287289995895 740 -47.6938170600305
700.0287289995895 741 -47.6938170600305
700.0287289995895 742 -47.6938170600305
700.0287289995895 743 -47.6938170600305
700.0287289995895 744 -47.6938170600305
700.0287289995895 745 -47.6938170600305
700.0287289995895 746 -47.6938170600305
700.0287289995895 747 -47.6938170600305
700.0287289995895 748 -47.6938170600305
700.0287289995895 749 -47.6938170600305
700.0287289995895 750 -47.6938170600305
700.0287289995895 751 -47.6938170600305
698.7231320865639 752 -45.62017284002917
698.7231320865639 753 -45.62017284002917
698.7231320865639 754 -45.62017284002917
698.7231320865639 755 -45.62017284002917
700.0287289995895 756 -47.6938170600305
701.3343259126151 757 -49.767461280031824
701.3343259126151 758 -49.767461280031824
706.5567135647177 762 -58.06203816003713
700.0287289995895 766 -47.6938170600305
698.7231320865639 767 -45.62017284002917
698.7231320865639 768 -45.62017284002917
700.0287289995895 769 -47.6938170600305
700.0287289995895 770 -47.6938170600305
700.0287289995895 771 -47.6938170600305
698.7231320865639 772 -45.62017284002917
698.7231320865639 773 -45.62017284002917
698.7231320865639 774 -45.62017284002917
698.7231320865639 775 -45.62017284002917
698.7231320865639 776 -45.62017284002917
676.5279845651281 780 -10.368221100006629
676.5279845651281 781 -10.368221100006629
676.5279845651281 782 -10.368221100006629
676.5279845651281 783 -10.368221100006629
676.5279845651281 784 -10.368221100006629
676.5279845651281 785 -10.368221100006629
676.5279845651281 786 -10.368221100006629
676.5279845651281 787 -10.368221100006629
676.5279845651281 788 -10.368221100006629
676.5279845651281 789 -10.368221100006629
672.8195506836304 552 -4.008549431431221
674.2293260254455 553 -6.012824147146831
672.8195506836304 554 -4.008549431431221
672.8195506836304 555 -4.008549431431221
674.2293260254455 556 -6.012824147146831
674.2293260254455 557 -6.012824147146831
674.2293260254455 558 -6.012824147146831
674.2293260254455 559 -6.012824147146831
674.2293260254455 560 -6.012824147146831
674.2293260254455 561 -6.012824147146831
674.2293260254455 562 -6.012824147146831
675.6391013672607 563 -8.017098862862442
675.6391013672607 564 -8.017098862862442
677.0488767090759 565 -10.02137357857805
678.458652050891 566 -12.025648294293662
678.458652050891 567 -12.025648294293662
681.2782027345213 568 -16.034197725724884
682.6879780763365 569 -18.03847244144049
684.0977534181517 570 -20.0427471571561
685.5075287599668 571 -22.047021872871714
686.9173041017821 572 -24.051296588587324
686.9173041017821 573 -24.051296588587324
688.3270794435972 574 -26.055571304302934
688.3270794435972 575 -26.055571304302934
688.3270794435972 576 -26.055571304302934
688.3270794435972 577 -26.055571304302934
688.3270794435972 578 -26.055571304302934
689.7368547854123 579 -28.059846020018544
689.7368547854123 580 -28.059846020018544
691.1466301272276 581 -30.064120735734154
692.5564054690427 582 -32.06839545144977
692.5564054690427 583 -32.06839545144977
692.5564054690427 584 -32.06839545144977
692.5564054690427 585 -32.06839545144977
693.9661808108578 586 -34.07267016716537
693.9661808108578 587 -34.07267016716537
693.9661808108578 588 -34.07267016716537
695.375956152673 589 -36.07694488288098
695.375956152673 590 -36.07694488288098
695.375956152673 591 -36.07694488288098
698.1955068363034 592 -40.0854943143122
698.1955068363034 593 -40.0854943143122
698.1955068363034 594 -40.0854943143122
698.1955068363034 595 -40.0854943143122
699.6052821781185 596 -42.08976903002782
699.6052821781185 597 -42.08976903002782
699.6052821781185 598 -42.08976903002782
699.6052821781185 599 -42.08976903002782
699.6052821781185 600 -42.08976903002782
699.6052821781185 601 -42.08976903002782
701.0150575199337 602 -44.09404374574343
701.0150575199337 603 -44.09404374574343
701.0150575199337 604 -44.09404374574343
701.0150575199337 605 -44.09404374574343
701.0150575199337 606 -44.09404374574343
701.0150575199337 607 -44.09404374574343
702.4248328617489 608 -46.09831846145904
702.4248328617489 609 -46.09831846145904
702.4248328617489 610 -46.09831846145904
702.4248328617489 611 -46.09831846145904
702.4248328617489 612 -46.09831846145904
702.4248328617489 613 -46.09831846145904
702.4248328617489 614 -46.09831846145904
702.4248328617489 615 -46.09831846145904
702.4248328617489 616 -46.09831846145904
702.4248328617489 617 -46.09831846145904
702.4248328617489 618 -46.09831846145904
702.4248328617489 619 -46.09831846145904
702.4248328617489 620 -46.09831846145904
702.4248328617489 621 -46.09831846145904
702.4248328617489 622 -46.09831846145904
702.4248328617489 623 -46.09831846145904
702.4248328617489 624 -46.09831846145904
702.4248328617489 625 -46.09831846145904
702.4248328617489 626 -46.09831846145904
702.4248328617489 627 -46.09831846145904
702.4248328617489 628 -46.09831846145904
702.4248328617489 629 -46.09831846145904
702.4248328617489 630 -46.09831846145904
702.4248328617489 631 -46.09831846145904
702.4248328617489 632 -46.09831846145904
702.4248328617489 633 -46.09831846145904
702.4248328617489 634 -46.09831846145904
702.4248328617489 635 -46.09831846145904
702.4248328617489 636 -46.09831846145904
702.4248328617489 637 -46.09831846145904
702.4248328617489 638 -46.09831846145904
702.4248328617489 639 -46.09831846145904
702.4248328617489 640 -46.09831846145904
702.4248328617489 641 -46.09831846145904
702.4248328617489 642 -46.09831846145904
702.4248328617489 643 -46.09831846145904
702.4248328617489 644 -46.09831846145904
702.4248328617489 645 -46.09831846145904
702.4248328617489 646 -46.09831846145904
702.4248328617489 647 -46.09831846145904
702.4248328617489 648 -46.09831846145904
702.4248328617489 649 -46.09831846145904
702.4248328617489 650 -46.09831846145904
702.4248328617489 651 -46.09831846145904
702.4248328617489 652 -46.09831846145904
702.4248328617489 653 -46.09831846145904
702.4248328617489 654 -46.09831846145904
702.4248328617489 655 -46.09831846145904
702.4248328617489 656 -46.09831846145904
702.4248328617489 657 -46.09831846145904
702.4248328617489 658 -46.09831846145904
702.4248328617489 659 -46.09831846145904
702.4248328617489 660 -46.09831846145904
702.4248328617489 661 -46.09831846145904
702.4248328617489 662 -46.09831846145904
702.4248328617489 663 -46.09831846145904
702.4248328617489 664 -46.09831846145904
702.4248328617489 665 -46.09831846145904
702.4248328617489 666 -46.09831846145904
702.4248328617489 667 -46.09831846145904
702.4248328617489 668 -46.09831846145904
702.4248328617489 669 -46.09831846145904
702.4248328617489 670 -46.09831846145904
702.4248328617489 671 -46.09831846145904
702.4248328617489 672 -46.09831846145904
702.4248328617489 673 -46.09831846145904
702.4248328617489 674 -46.09831846145904
702.4248328617489 675 -46.09831846145904
702.4248328617489 676 -46.09831846145904
702.4248328617489 677 -46.09831846145904
702.4248328617489 678 -46.09831846145904
702.4248328617489 679 -46.09831846145904
702.4248328617489 680 -46.09831846145904
702.4248328617489 681 -46.09831846145904
702.4248328617489 682 -46.09831846145904
702.4248328617489 683 -46.09831846145904
702.4248328617489 684 -46.09831846145904
702.4248328617489 685 -46.09831846145904
702.4248328617489 686 -46.09831846145904
702.4248328617489 687 -46.09831846145904
702.4248328617489 688 -46.09831846145904
702.4248328617489 689 -46.09831846145904
702.4248328617489 690 -46.09831846145904
702.4248328617489 691 -46.09831846145904
702.4248328617489 692 -46.09831846145904
702.4248328617489 693 -46.09831846145904
702.4248328617489 694 -46.09831846145904
702.4248328617489 695 -46.09831846145904
702.4248328617489 696 -46.09831846145904
702.4248328617489 697 -46.09831846145904
702.4248328617489 698 -46.09831846145904
702.4248328617489 699 -46.09831846145904
702.4248328617489 700 -46.09831846145904
702.4248328617489 701 -46.09831846145904
702.4248328617489 702 -46.09831846145904
702.4248328617489 703 -46.09831846145904
702.4248328617489 704 -46.09831846145904
702.4248328617489 705 -46.09831846145904
702.4248328617489 706 -46.09831846145904
702.4248328617489 707 -46.09831846145904
702.4248328617489 708 -46.09831846145904
702.4248328617489 709 -46.09831846145904
702.4248328617489 710 -46.09831846145904
702.4248328617489 711 -46.09831846145904
702.4248328617489 712 -46.09831846145904
702.4248328617489 713 -46.09831846145904
702.4248328617489 714 -46.09831846145904
702.4248328617489 715 -46.09831846145904
702.4248328617489 716 -46.09831846145904
702.4248328617489 717 -46.09831846145904
702.4248328617489 718 -46.09831846145904
703.834608203564 719 -48.10259317717465
702.4248328617489 720 -46.09831846145904
702.4248328617489 721 -46.09831846145904
702.4248328617489 722 -46.09831846145904
702.4248328617489 723 -46.09831846145904
702.4248328617489 724 -46.09831846145904
702.4248328617489 725 -46.09831846145904
702.4248328617489 726 -46.09831846145904
702.4248328617489 727 -46.09831846145904
702.4248328617489 728 -46.09831846145904
702.4248328617489 729 -46.09831846145904
702.4248328617489 730 -46.09831846145904
702.4248328617489 731 -46.09831846145904
702.4248328617489 732 -46.09831846145904
702.4248328617489 733 -46.09831846145904
702.4248328617489 734 -46.09831846145904
702.4248328617489 735 -46.09831846145904
702.4248328617489 736 -46.09831846145904
702.4248328617489 737 -46.09831846145904
702.4248328617489 738 -46.09831846145904
702.4248328617489 739 -46.09831846145904
702.4248328617489 740 -46.09831846145904
702.4248328617489 741 -46.09831846145904
702.4248328617489 742 -46.09831846145904
702.4248328617489 743 -46.09831846145904
702.4248328617489 744 -46.09831846145904
702.4248328617489 745 -46.09831846145904
702.4248328617489 746 -46.09831846145904
702.4248328617489 747 -46.09831846145904
702.4248328617489 748 -46.09831846145904
702.4248328617489 749 -46.09831846145904
702.4248328617489 750 -46.09831846145904
702.4248328617489 751 -46.09831846145904
702.4248328617489 752 -46.09831846145904
702.4248328617489 753 -46.09831846145904
702.4248328617489 754 -46.09831846145904
702.4248328617489 756 -46.09831846145904
703.834608203564 757 -48.10259317717465
703.834608203564 758 -48.10259317717465
703.834608203564 759 -48.10259317717465
703.834608203564 760 -48.10259317717465
703.834608203564 761 -48.10259317717465
703.834608203564 762 -48.10259317717465
703.834608203564 763 -48.10259317717465
703.834608203564 764 -48.10259317717465
703.834608203564 765 -48.10259317717465
703.834608203564 766 -48.10259317717465
703.834608203564 767 -48.10259317717465
703.834608203564 768 -48.10259317717465
703.834608203564 769 -48.10259317717465
702.4248328617489 770 -46.09831846145904
702.4248328617489 771 -46.09831846145904
702.4248328617489 772 -46.09831846145904
702.4248328617489 773 -46.09831846145904
702.4248328617489 774 -46.09831846145904
702.4248328617489 775 -46.09831846145904
702.4248328617489 776 -46.09831846145904
677.0488767090759 779 -10.02137357857805
677.0488767090759 780 -10.02137357857805
677.0488767090759 781 -10.02137357857805
677.0488767090759 782 -10.02137357857805
677.0488767090759 783 -10.02137357857805
677.0488767090759 784 -10.02137357857805
678.458652050891 785 -12.025648294293662
678.458652050891 786 -12.025648294293662
678.458652050891 787 -12.025648294293662
678.458652050891 788 -12.025648294293662
678.458652050891 789 -12.025648294293662
671.5102758277039 552 -1.9296762875415931
673.0205516554078 553 -3.8593525750831863
673.0205516554078 554 -3.8593525750831863
673.0205516554078 555 -3.8593525750831863
674.5308274831117 556 -5.789028862624779
674.5308274831117 557 -5.789028862624779
676.0411033108155 558 -7.718705150166373
676.0411033108155 559 -7.718705150166373
674.5308274831117 560 -5.789028862624779
674.5308274831117 561 -5.789028862624779
676.0411033108155 562 -7.718705150166373
676.0411033108155 563 -7.718705150166373
677.5513791385195 564 -9.648381437707965
677.5513791385195 565 -9.648381437707965
679.0616549662233 566 -11.578057725249558
679.0616549662233 567 -11.578057725249558
683.592482449335 568 -17.367086587874336
683.592482449335 569 -17.367086587874336
685.1027582770389 570 -19.29676287541593
686.6130341047427 571 -21.226439162957526
688.1233099324467 572 -23.156115450499115
689.6335857601505 573 -25.085791738040708
689.6335857601505 574 -25.085791738040708
689.6335857601505 575 -25.085791738040708
691.1438615878544 576 -27.015468025582305
691.1438615878544 577 -27.015468025582305
691.1438615878544 578 -27.015468025582305
691.1438615878544 579 -27.015468025582305
692.6541374155584 580 -28.945144313123897
694.1644132432622 581 -30.87482060066549
694.1644132432622 582 -30.87482060066549
694.1644132432622 583 -30.87482060066549
694.1644132432622 584 -30.87482060066549
694.1644132432622 585 -30.87482060066549
694.1644132432622 586 -30.87482060066549
695.6746890709661 587 -32.80449688820708
695.6746890709661 588 -32.80449688820708
695.6746890709661 589 -32.80449688820708
695.6746890709661 590 -32.80449688820708
695.6746890709661 591 -32.80449688820708
700.2055165540777 592 -38.59352575083186
700.2055165540777 593 -38.59352575083186
700.2055165540777 594 -38.59352575083186
701.7157923817816 595 -40.523202038373455
701.7157923817816 596 -40.523202038373455
701.7157923817816 597 -40.523202038373455
701.7157923817816 598 -40.523202038373455
701.7157923817816 599 -40.523202038373455
703.2260682094856 600 -42.45287832591505
703.2260682094856 601 -42.45287832591505
703.2260682094856 602 -42.45287832591505
703.2260682094856 603 -42.45287832591505
704.7363440371894 604 -44.38255461345664
704.7363440371894 605 -44.38255461345664
704.7363440371894 606 -44.38255461345664
704.7363440371894 607 -44.38255461345664
704.7363440371894 608 -44.38255461345664
704.7363440371894 609 -44.38255461345664
704.7363440371894 610 -44.38255461345664
704.7363440371894 611 -44.38255461345664
704.7363440371894 612 -44.38255461345664
704.7363440371894 613 -44.38255461345664
704.7363440371894 614 -44.38255461345664
704.7363440371894 615 -44.38255461345664
704.7363440371894 616 -44.38255461345664
704.7363440371894 617 -44.38255461345664
704.7363440371894 618 -44.38255461345664
704.7363440371894 619 -44.38255461345664
704.7363440371894 620 -44.38255461345664
704.7363440371894 621 -44.38255461345664
704.7363440371894 622 -44.38255461345664
704.7363440371894 623 -44.38255461345664
704.7363440371894 624 -44.38255461345664
704.7363440371894 625 -44.38255461345664
704.7363440371894 626 -44.38255461345664
704.7363440371894 627 -44.38255461345664
704.7363440371894 628 -44.38255461345664
704.7363440371894 629 -44.38255461345664
704.7363440371894 630 -44.38255461345664
704.7363440371894 631 -44.38255461345664
704.7363440371894 632 -44.38255461345664
704.7363440371894 633 -44.38255461345664
704.7363440371894 634 -44.38255461345664
704.7363440371894 635 -44.38255461345664
704.7363440371894 636 -44.38255461345664
704.7363440371894 637 -44.38255461345664
704.7363440371894 638 -44.38255461345664
704.7363440371894 639 -44.38255461345664
704.7363440371894 640 -44.38255461345664
704.7363440371894 641 -44.38255461345664
704.7363440371894 642 -44.38255461345664
704.7363440371894 643 -44.38255461345664
704.7363440371894 644 -44.38255461345664
704.7363440371894 645 -44.38255461345664
704.7363440371894 646 -44.38255461345664
704.7363440371894 647 -44.38255461345664
704.7363440371894 648 -44.38255461345664
706.2466198648933 649 -46.31223090099823
706.2466198648933 650 -46.31223090099823
706.2466198648933 651 -46.31223090099823
706.2466198648933 652 -46.31223090099823
704.7363440371894 653 -44.38255461345664
704.7363440371894 654 -44.38255461345664
704.7363440371894 655 -44.38255461345664
706.2466198648933 656 -46.31223090099823
706.2466198648933 657 -46.31223090099823
706.2466198648933 658 -46.31223090099823
706.2466198648933 659 -46.31223090099823
704.7363440371894 660 -44.38255461345664
704.7363440371894 661 -44.38255461345664
704.7363440371894 662 -44.38255461345664
704.7363440371894 663 -44.38255461345664
704.7363440371894 664 -44.38255461345664
704.7363440371894 665 -44.38255461345664
704.7363440371894 666 -44.38255461345664
704.7363440371894 667 -44.38255461345664
704.7363440371894 668 -44.38255461345664
704.7363440371894 669 -44.38255461345664
704.7363440371894 670 -44.38255461345664
704.7363440371894 671 -44.38255461345664
