-546.095557806152 432 195.3961149674878
-546.095557806152 592 195.3961149674878
-576.2249678920086 416 206.17659027603884
-576.2249678920086 608 206.17659027603884
-602.5882017171332 412 215.609506171021
-602.5882017171332 612 215.609506171021
-628.9514355422579 416 225.04242206600318
-628.9514355422579 608 225.04242206600318
-659.0808456281145 432 235.82289737455423
-659.0808456281145 592 235.82289737455423
-677.9117269317749 452 242.56069444239864
-677.9117269317749 572 242.56069444239864
-692.9764319747032 484 247.95093209667417
-692.9764319747032 540 247.95093209667417
-696.7426082354353 512 249.29849151024305
735.6940335732208 512 -29.028467725446237
731.866272230292 484 -27.86732901642839
731.866272230292 540 -27.86732901642839
716.5552268585767 452 -23.222774180356993
716.5552268585767 572 -23.222774180356993
697.4164201439326 432 -17.417080635267745
697.4164201439326 592 -17.417080635267745
666.7943294005019 416 -8.127970963124946
666.7943294005019 608 -8.127970963124946
640.0 412 0.0
640.0 612 0.0
613.2056705994981 416 8.127970963124946
613.2056705994981 608 8.127970963124946
582.5835798560674 432 17.417080635267745
582.5835798560674 592 17.417080635267745
563.4447731414233 452 23.222774180356993
563.4447731414233 572 23.222774180356993
548.133727769708 484 27.86732901642839
548.133727769708 540 27.86732901642839
544.3059664267792 512 29.028467725446237
-516.7477812953928 512 156.75372571740968
-520.5755426383216 484 157.91486442642753
-520.5755426383216 540 157.91486442642753
-535.8865880100369 452 162.55941926249895
-535.8865880100369 572 162.55941926249895
-555.0253947246811 432 168.3651128075882
-555.0253947246811 592 168.3651128075882
-585.6474854681118 416 177.65422247973098
-585.6474854681118 608 177.65422247973098
-612.4418148686136 412 185.78219344285594
-612.4418148686136 612 185.78219344285594
-639.2361442691155 416 193.91016440598088
-639.2361442691155 608 193.91016440598088
-669.8582350125462 432 203.19927407812366
-669.8582350125462 592 203.19927407812366
-688.9970417271903 452 209.0049676232129
-688.9970417271903 572 209.0049676232129
-704.3080870989057 484 213.64952245928433
-704.3080870989057 540 213.64952245928433
-708.1358484418346 512 214.81066116830218
737.0031253194544 512 -24.298017990326407
733.1230003066762 484 -23.32609727071335
733.1230003066762 540 -23.32609727071335
717.6025002555635 452 -19.438414392261127
717.6025002555635 572 -19.438414392261127
698.2018751916727 432 -14.578810794195844
698.2018751916727 592 -14.578810794195844
667.1608750894472 416 -6.803445037291394
667.1608750894472 608 -6.803445037291394
640.0 412 0.0
640.0 612 0.0
612.8391249105528 416 6.803445037291394
612.8391249105528 608 6.803445037291394
581.7981248083273 432 14.578810794195844
581.7981248083273 592 14.578810794195844
562.3974997444365 452 19.438414392261127
562.3974997444365 572 19.438414392261127
546.8769996933238 484 23.32609727071335
546.8769996933238 540 23.32609727071335
542.9968746805456 512 24.298017990326407
-523.8168767250537 512 131.20929714776258
-527.6970017378319 484 132.18121786737566
-527.6970017378319 540 132.18121786737566
-543.2175017889447 452 136.06890074582788
-543.2175017889447 572 136.06890074582788
-562.6181268528355 432 140.92850434389317
-562.6181268528355 592 140.92850434389317
-593.6591269550609 416 148.70387010079762
-593.6591269550609 608 148.70387010079762
-620.8200020445081 412 155.507315138089
-620.8200020445081 612 155.507315138089
-647.9808771339553 416 162.3107601753804
-647.9808771339553 608 162.3107601753804
-679.0218772361808 432 170.08612593228486
-679.0218772361808 592 170.08612593228486
-698.4225023000716 452 174.94572953035012
-698.4225023000716 572 174.94572953035012
-713.9430023511844 484 178.83341240880236
-713.9430023511844 540 178.83341240880236
-717.8231273639625 512 179.8053331284154
738.078528040323 512 -19.509032201612815
734.1553869187101 484 -18.728670913548303
734.1553869187101 540 -18.728670913548303
718.4628224322585 452 -15.607225761290254
718.4628224322585 572 -15.607225761290254
698.8471168241938 432 -11.70541932096769
698.8471168241938 592 -11.70541932096769
667.4619878512905 416 -5.4625290164515885
667.4619878512905 608 -5.4625290164515885
640.0 412 0.0
640.0 612 0.0
612.5380121487095 416 5.4625290164515885
612.5380121487095 608 5.4625290164515885
581.1528831758062 432 11.70541932096769
581.1528831758062 592 11.70541932096769
561.5371775677415 452 15.607225761290254
561.5371775677415 572 15.607225761290254
545.8446130812899 484 18.728670913548303
545.8446130812899 540 18.728670913548303
541.921471959677 512 19.509032201612815
-529.6240514177445 512 105.3487738887092
-533.5471925393574 484 106.12913517677372
-533.5471925393574 540 106.12913517677372
-549.239757025809 452 109.25058032903178
-549.239757025809 572 109.25058032903178
-568.8554626338737 432 113.15238676935434
-568.8554626338737 592 113.15238676935434
-600.240591606777 416 119.39527707387043
-600.240591606777 608 119.39527707387043
-627.7025794580675 412 124.85780609032203
-627.7025794580675 612 124.85780609032203
-655.164567309358 416 130.32033510677363
-655.164567309358 608 130.32033510677363
-686.5496962822613 432 136.56322541128972
-686.5496962822613 592 136.56322541128972
-706.1654018903259 452 140.46503185161228
-706.1654018903259 572 140.46503185161228
-721.8579663767775 484 143.58647700387033
-721.8579663767775 540 143.58647700387033
-725.7811074983905 512 144.36683829193484
738.9176509964781 512 -14.673047445536225
734.960944956619 484 -14.086125547714776
734.960944956619 540 -14.086125547714776
719.1341207971825 452 -11.73843795642898
719.1341207971825 572 -11.73843795642898
699.3505905978868 432 -8.803828467321734
699.3505905978868 592 -8.803828467321734
667.6969422790139 416 -4.1084532847501425
667.6969422790139 608 -4.1084532847501425
640.0 412 0.0
640.0 612 0.0
612.3030577209861 416 4.1084532847501425
612.3030577209861 608 4.1084532847501425
580.6494094021132 432 8.803828467321734
580.6494094021132 592 8.803828467321734
560.8658792028175 452 11.73843795642898
560.8658792028175 572 11.73843795642898
545.039055043381 484 14.086125547714776
545.039055043381 540 14.086125547714776
541.0823490035219 512 14.673047445536225
-534.1553153809817 512 79.23445620589561
-538.1120214208408 484 79.82137810371707
-538.1120214208408 540 79.82137810371707
-553.9388455802773 452 82.16906569500286
-553.9388455802773 572 82.16906569500286
-573.7223757795729 432 85.1036751841101
-573.7223757795729 592 85.1036751841101
-605.3760240984459 416 89.7990503666817
-605.3760240984459 608 89.7990503666817
-633.0729663774598 412 93.90750365143184
-633.0729663774598 612 93.90750365143184
-660.7699086564736 416 98.01595693618198
-660.7699086564736 608 98.01595693618198
-692.4235569753466 432 102.71133211875357
-692.4235569753466 592 102.71133211875357
-712.2070871746422 452 105.64594160786082
-712.2070871746422 572 105.64594160786082
-728.0339113340788 484 107.99362919914661
-728.0339113340788 540 107.99362919914661
-731.9906173739379 512 108.58055109696807
739.5184726672197 512 -9.801714032956083
735.537733760531 484 -9.40964547163784
735.537733760531 540 -9.40964547163784
719.6147781337758 452 -7.841371226364866
719.6147781337758 572 -7.841371226364866
699.7110836003318 432 -5.881028419773649
699.7110836003318 592 -5.881028419773649
667.8651723468215 416 -2.744479929227703
667.8651723468215 608 -2.744479929227703
640.0 412 0.0
640.0 612 0.0
612.1348276531785 416 2.744479929227703
612.1348276531785 608 2.744479929227703
580.2889163996682 432 5.881028419773649
580.2889163996682 592 5.881028419773649
560.3852218662242 452 7.841371226364866
560.3852218662242 572 7.841371226364866
544.462266239469 484 9.40964547163784
544.462266239469 540 9.40964547163784
540.4815273327803 512 9.801714032956083
-537.3997524029863 512 52.929255777962844
-541.3804913096751 484 53.32132433928109
-541.3804913096751 540 53.32132433928109
-557.3034469364302 452 54.889598584554065
-557.3034469364302 572 54.889598584554065
-577.2071414698742 432 56.84994139114528
-577.2071414698742 592 56.84994139114528
-609.0530527233844 416 59.98648988169123
-609.0530527233844 608 59.98648988169123
-636.918225070206 412 62.73096981091893
-636.918225070206 612 62.73096981091893
-664.7833974170275 416 65.47544974014663
-664.7833974170275 608 65.47544974014663
-696.6293086705377 432 68.61199823069258
-696.6293086705377 592 68.61199823069258
-716.5330032039817 452 70.57234103728379
-716.5330032039817 572 70.57234103728379
-732.4559588307369 484 72.14061528255677
-732.4559588307369 540 72.14061528255677
-736.4366977374257 512 72.532683843875
739.8795456205172 512 -4.9067674327417965
735.8843637956966 484 -4.710496735432125
735.8843637956966 540 -4.710496735432125
719.9036364964138 452 -3.925413946193437
719.9036364964138 572 -3.925413946193437
699.9277273723103 432 -2.944060459645078
699.9277273723103 592 -2.944060459645078
667.9662727737448 416 -1.373894881167703
667.9662727737448 608 -1.373894881167703
640.0 412 0.0
640.0 612 0.0
612.0337272262552 416 1.373894881167703
612.0337272262552 608 1.373894881167703
580.0722726276897 432 2.944060459645078
580.0722726276897 592 2.944060459645078
560.0963635035862 452 3.925413946193437
560.0963635035862 572 3.925413946193437
544.1156362043034 484 4.710496735432125
544.1156362043034 540 4.710496735432125
540.1204543794828 512 4.9067674327417965
-539.349546350793 512 26.496544136805703
-543.3447281756138 484 26.692814834115374
-543.3447281756138 540 26.692814834115374
-559.3254554748966 452 27.47789762335406
-559.3254554748966 572 27.47789762335406
-579.301364599 432 28.45925110990242
-579.301364599 592 28.45925110990242
-611.2628191975655 416 30.029416688379797
-611.2628191975655 608 30.029416688379797
-639.2290919713104 412 31.403311569547498
-639.2290919713104 612 31.403311569547498
-667.1953647450551 416 32.7772064507152
-667.1953647450551 608 32.7772064507152
-699.1568193436207 432 34.34737202919258
-699.1568193436207 592 34.34737202919258
-719.1327284677242 452 35.328725515740935
-719.1327284677242 572 35.328725515740935
-735.1134557670069 484 36.11380830497962
-735.1134557670069 540 36.11380830497962
-739.1086375918276 512 36.31007900228929
740.0 512 -1.2246467991473532e-14
736.0 484 -1.175660927181459e-14
736.0 540 -1.175660927181459e-14
720.0 452 -9.797174393178826e-15
720.0 572 -9.797174393178826e-15
700.0 432 -7.34788079488412e-15
700.0 592 -7.34788079488412e-15
668.0 416 -3.429011037612589e-15
668.0 608 -3.429011037612589e-15
640.0 412 0.0
640.0 612 0.0
612.0 416 3.429011037612589e-15
612.0 608 3.429011037612589e-15
580.0 432 7.34788079488412e-15
580.0 592 7.34788079488412e-15
560.0 452 9.797174393178826e-15
560.0 572 9.797174393178826e-15
544.0 484 1.175660927181459e-14
544.0 540 1.175660927181459e-14
540.0 512 1.2246467991473532e-14
-540.0 512 6.613092715395707e-14
-544.0 484 6.662078587361601e-14
-544.0 540 6.662078587361601e-14
-560.0 452 6.858022075225178e-14
-560.0 572 6.858022075225178e-14
-580.0 432 7.102951435054649e-14
-580.0 592 7.102951435054649e-14
-612.0 416 7.494838410781801e-14
-612.0 608 7.494838410781801e-14
-640.0 412 7.837739514543061e-14
-640.0 612 7.837739514543061e-14
-668.0 416 8.180640618304319e-14
-668.0 608 8.180640618304319e-14
-700.0 432 8.572527594031473e-14
-700.0 592 8.572527594031473e-14
-720.0 452 8.817456953860943e-14
-720.0 572 8.817456953860943e-14
-736.0 484 9.01340044172452e-14
-736.0 540 9.01340044172452e-14
-740.0 512 9.062386313690414e-14
739.8795456205172 512 4.906767432741817
735.8843637956966 484 4.7104967354321445
735.8843637956966 540 4.7104967354321445
719.9036364964138 452 3.925413946193453
719.9036364964138 572 3.925413946193453
699.9277273723103 432 2.94406045964509
699.9277273723103 592 2.94406045964509
667.9662727737448 416 1.3738948811677087
667.9662727737448 608 1.3738948811677087
640.0 412 0.0
640.0 612 0.0
612.0337272262552 416 -1.3738948811677087
612.0337272262552 608 -1.3738948811677087
580.0722726276897 432 -2.94406045964509
580.0722726276897 592 -2.94406045964509
560.0963635035862 452 -3.925413946193453
560.0963635035862 572 -3.925413946193453
544.1156362043034 484 -4.7104967354321445
544.1156362043034 540 -4.7104967354321445
540.1204543794828 512 -4.906767432741817
-539.349546350793 512 -26.49654413680581
-543.3447281756138 484 -26.692814834115485
-543.3447281756138 540 -26.692814834115485
-559.3254554748966 452 -27.477897623354174
-559.3254554748966 572 -27.477897623354174
-579.301364599 432 -28.45925110990254
-579.301364599 592 -28.45925110990254
-611.2628191975655 416 -30.029416688379918
-611.2628191975655 608 -30.029416688379918
-639.2290919713104 412 -31.403311569547625
-639.2290919713104 612 -31.403311569547625
-667.1953647450551 416 -32.77720645071533
-667.1953647450551 608 -32.77720645071533
-699.1568193436207 432 -34.34737202919272
-699.1568193436207 592 -34.34737202919272
-719.1327284677242 452 -35.328725515741084
-719.1327284677242 572 -35.328725515741084
-735.1134557670069 484 -36.11380830497977
-735.1134557670069 540 -36.11380830497977
-739.1086375918276 512 -36.31007900228944
739.5184726672197 512 9.80171403295606
735.537733760531 484 9.409645471637816
735.537733760531 540 9.409645471637816
719.6147781337758 452 7.841371226364847
719.6147781337758 572 7.841371226364847
699.7110836003318 432 5.881028419773635
699.7110836003318 592 5.881028419773635
667.8651723468215 416 2.7444799292276967
667.8651723468215 608 2.7444799292276967
640.0 412 0.0
640.0 612 0.0
612.1348276531785 416 -2.7444799292276967
612.1348276531785 608 -2.7444799292276967
580.2889163996682 432 -5.881028419773635
580.2889163996682 592 -5.881028419773635
560.3852218662242 452 -7.841371226364847
560.3852218662242 572 -7.841371226364847
544.462266239469 484 -9.409645471637816
544.462266239469 540 -9.409645471637816
540.4815273327803 512 -9.80171403295606
-537.3997524029863 512 -52.929255777962716
-541.3804913096751 484 -53.32132433928096
-541.3804913096751 540 -53.32132433928096
-557.3034469364303 452 -54.88959858455393
-557.3034469364303 572 -54.88959858455393
-577.2071414698743 432 -56.849941391145144
-577.2071414698743 592 -56.849941391145144
-609.0530527233846 416 -59.98648988169108
-609.0530527233846 608 -59.98648988169108
-636.9182250702061 412 -62.73096981091878
-636.9182250702061 612 -62.73096981091878
-664.7833974170276 416 -65.47544974014647
-664.7833974170276 608 -65.47544974014647
-696.6293086705379 432 -68.61199823069241
-696.6293086705379 592 -68.61199823069241
-716.5330032039818 452 -70.57234103728362
-716.5330032039818 572 -70.57234103728362
-732.4559588307369 484 -72.1406152825566
-732.4559588307369 540 -72.1406152825566
-736.4366977374257 512 -72.53268384387484
738.9176509964781 512 14.673047445536158
734.960944956619 484 14.086125547714712
734.960944956619 540 14.086125547714712
719.1341207971825 452 11.738437956428927
719.1341207971825 572 11.738437956428927
699.3505905978868 432 8.803828467321695
699.3505905978868 592 8.803828467321695
667.6969422790139 416 4.108453284750125
667.6969422790139 608 4.108453284750125
640.0 412 0.0
640.0 612 0.0
612.3030577209861 416 -4.108453284750125
612.3030577209861 608 -4.108453284750125
580.6494094021132 432 -8.803828467321695
580.6494094021132 592 -8.803828467321695
560.8658792028175 452 -11.738437956428927
560.8658792028175 572 -11.738437956428927
545.039055043381 484 -14.086125547714712
545.039055043381 540 -14.086125547714712
541.0823490035219 512 -14.673047445536158
-534.1553153809817 512 -79.23445620589526
-538.1120214208408 484 -79.8213781037167
-538.1120214208408 540 -79.8213781037167
-553.9388455802774 452 -82.16906569500249
-553.9388455802774 572 -82.16906569500249
-573.722375779573 432 -85.10367518410972
-573.722375779573 592 -85.10367518410972
-605.376024098446 416 -89.79905036668129
-605.376024098446 608 -89.79905036668129
-633.0729663774598 412 -93.90750365143141
-633.0729663774598 612 -93.90750365143141
-660.7699086564737 416 -98.01595693618154
-660.7699086564737 608 -98.01595693618154
-692.4235569753467 432 -102.7113321187531
-692.4235569753467 592 -102.7113321187531
-712.2070871746423 452 -105.64594160786034
-712.2070871746423 572 -105.64594160786034
-728.0339113340789 484 -107.99362919914613
-728.0339113340789 540 -107.99362919914613
-731.990617373938 512 -108.58055109696757
738.078528040323 512 19.50903220161279
734.1553869187102 484 18.728670913548278
734.1553869187102 540 18.728670913548278
718.4628224322585 452 15.607225761290234
718.4628224322585 572 15.607225761290234
698.8471168241938 432 11.705419320967675
698.8471168241938 592 11.705419320967675
667.4619878512905 416 5.462529016451581
667.4619878512905 608 5.462529016451581
640.0 412 0.0
640.0 612 0.0
612.5380121487095 416 -5.462529016451581
612.5380121487095 608 -5.462529016451581
581.1528831758062 432 -11.705419320967675
581.1528831758062 592 -11.705419320967675
561.5371775677415 452 -15.607225761290234
561.5371775677415 572 -15.607225761290234
545.8446130812898 484 -18.728670913548278
545.8446130812898 540 -18.728670913548278
541.921471959677 512 -19.50903220161279
-529.6240514177445 512 -105.34877388870908
-533.5471925393574 484 -106.12913517677359
-533.5471925393574 540 -106.12913517677359
-549.2397570258091 452 -109.25058032903164
-549.2397570258091 572 -109.25058032903164
-568.8554626338737 432 -113.1523867693542
-568.8554626338737 592 -113.1523867693542
-600.2405916067771 416 -119.39527707387029
-600.2405916067771 608 -119.39527707387029
-627.7025794580676 412 -124.85780609032187
-627.7025794580676 612 -124.85780609032187
-655.164567309358 416 -130.32033510677346
-655.164567309358 608 -130.32033510677346
-686.5496962822614 432 -136.56322541128955
-686.5496962822614 592 -136.56322541128955
-706.1654018903259 452 -140.4650318516121
-706.1654018903259 572 -140.4650318516121
-721.8579663767777 484 -143.58647700387016
-721.8579663767777 540 -143.58647700387016
-725.7811074983906 512 -144.36683829193467
737.0031253194544 512 24.298017990326382
733.1230003066762 484 23.326097270713326
733.1230003066762 540 23.326097270713326
717.6025002555635 452 19.438414392261105
717.6025002555635 572 19.438414392261105
698.2018751916727 432 14.578810794195828
698.2018751916727 592 14.578810794195828
667.1608750894472 416 6.803445037291387
667.1608750894472 608 6.803445037291387
640.0 412 0.0
640.0 612 0.0
612.8391249105528 416 -6.803445037291387
612.8391249105528 608 -6.803445037291387
581.7981248083273 432 -14.578810794195828
581.7981248083273 592 -14.578810794195828
562.3974997444365 452 -19.438414392261105
562.3974997444365 572 -19.438414392261105
546.8769996933238 484 -23.326097270713326
546.8769996933238 540 -23.326097270713326
542.9968746805456 512 -24.298017990326382
-523.8168767250537 512 -131.20929714776247
-527.6970017378319 484 -132.18121786737552
-527.6970017378319 540 -132.18121786737552
-543.2175017889447 452 -136.06890074582773
-543.2175017889447 572 -136.06890074582773
-562.6181268528355 432 -140.92850434389302
-562.6181268528355 592 -140.92850434389302
-593.6591269550609 416 -148.70387010079745
-593.6591269550609 608 -148.70387010079745
-620.8200020445081 412 -155.50731513808884
-620.8200020445081 612 -155.50731513808884
-647.9808771339553 416 -162.31076017538024
-647.9808771339553 608 -162.31076017538024
-679.0218772361808 432 -170.08612593228466
-679.0218772361808 592 -170.08612593228466
-698.4225023000716 452 -174.94572953034995
-698.4225023000716 572 -174.94572953034995
-713.9430023511844 484 -178.83341240880216
-713.9430023511844 540 -178.83341240880216
-717.8231273639625 512 -179.8053331284152
735.6940335732208 512 29.028467725446212
731.866272230292 484 27.867329016428364
731.866272230292 540 27.867329016428364
716.5552268585767 452 23.222774180356968
716.5552268585767 572 23.222774180356968
697.4164201439326 432 17.417080635267727
697.4164201439326 592 17.417080635267727
666.7943294005019 416 8.12797096312494
666.7943294005019 608 8.12797096312494
640.0 412 0.0
640.0 612 0.0
613.2056705994981 416 -8.12797096312494
613.2056705994981 608 -8.12797096312494
582.5835798560674 432 -17.417080635267727
582.5835798560674 592 -17.417080635267727
563.4447731414233 452 -23.222774180356968
563.4447731414233 572 -23.222774180356968
548.133727769708 484 -27.867329016428364
548.133727769708 540 -27.867329016428364
544.3059664267792 512 -29.028467725446212
-516.7477812953928 512 -156.75372571740954
-520.5755426383216 484 -157.91486442642739
-520.5755426383216 540 -157.91486442642739
-535.886588010037 452 -162.55941926249878
-535.886588010037 572 -162.55941926249878
-555.0253947246812 432 -168.36511280758802
-555.0253947246812 592 -168.36511280758802
-585.6474854681119 416 -177.6542224797308
-585.6474854681119 608 -177.6542224797308
-612.4418148686137 412 -185.78219344285574
-612.4418148686137 612 -185.78219344285574
-639.2361442691156 416 -193.91016440598068
-639.2361442691156 608 -193.91016440598068
-669.8582350125463 432 -203.19927407812347
-669.8582350125463 592 -203.19927407812347
-688.9970417271904 452 -209.0049676232127
-688.9970417271904 572 -209.0049676232127
-704.3080870989057 484 -213.6495224592841
-704.3080870989057 540 -213.6495224592841
-708.1358484418346 512 -214.81066116830195
734.154406518302 512 33.68898533922201
730.3882302575701 484 32.34142592565313
730.3882302575701 540 32.34142592565313
715.3235252146417 452 26.95118827137761
715.3235252146417 572 26.95118827137761
696.4926439109812 432 20.213391203533206
696.4926439109812 592 20.213391203533206
666.3632338251246 416 9.432915894982163
666.3632338251246 608 9.432915894982163
640.0 412 0.0
640.0 612 0.0
613.6367661748754 416 -9.432915894982163
613.6367661748754 608 -9.432915894982163
583.5073560890188 432 -20.213391203533206
583.5073560890188 592 -20.213391203533206
564.6764747853583 452 -26.95118827137761
564.6764747853583 572 -26.95118827137761
549.6117697424299 484 -32.34142592565313
549.6117697424299 540 -32.34142592565313
545.845593481698 512 -33.68898533922201
-508.43379519883126 512 -181.92052083179885
-512.1999714595634 484 -183.26808024536774
-512.1999714595634 540 -183.26808024536774
-527.2646765024916 452 -188.65831789964327
-527.2646765024916 572 -188.65831789964327
-546.0955578061521 432 -195.39611496748765
-546.0955578061521 592 -195.39611496748765
-576.2249678920087 416 -206.1765902760387
-576.2249678920087 608 -206.1765902760387
-602.5882017171333 412 -215.60950617102088
-602.5882017171333 612 -215.60950617102088
-628.9514355422579 416 -225.04242206600304
-628.9514355422579 608 -225.04242206600304
-659.0808456281146 432 -235.8228973745541
-659.0808456281146 592 -235.8228973745541
-677.911726931775 452 -242.56069444239847
-677.911726931775 572 -242.56069444239847
-692.9764319747034 484 -247.950932096674
-692.9764319747034 540 -247.950932096674
-696.7426082354353 512 -249.29849151024288
732.3879532511287 512 38.268343236508926
728.6924351210836 484 36.73760950704857
728.6924351210836 540 36.73760950704857
713.910362600903 452 30.614674589207137
713.910362600903 572 30.614674589207137
695.4327719506772 432 22.961005941905352
695.4327719506772 592 22.961005941905352
665.868626910316 416 10.715136106222499
665.868626910316 608 10.715136106222499
640.0 412 0.0
640.0 612 0.0
614.131373089684 416 -10.715136106222499
614.131373089684 608 -10.715136106222499
584.5672280493228 432 -22.961005941905352
584.5672280493228 592 -22.961005941905352
566.089637399097 452 -30.614674589207137
566.089637399097 572 -30.614674589207137
551.3075648789164 484 -36.73760950704857
551.3075648789164 540 -36.73760950704857
547.6120467488713 512 -38.268343236508926
-498.89494755609496 512 -206.6490534771482
-502.5904656861401 484 -208.17978720660855
-502.5904656861401 540 -208.17978720660855
-517.3725382063207 452 -214.30272212444996
-517.3725382063207 572 -214.30272212444996
-535.8501288565465 432 -221.95639077175176
-535.8501288565465 592 -221.95639077175176
-565.4142738969076 416 -234.2022606074346
-565.4142738969076 608 -234.2022606074346
-591.2829008072237 412 -244.9173967136571
-591.2829008072237 612 -244.9173967136571
-617.1515277175397 416 -255.6325328198796
-617.1515277175397 608 -255.6325328198796
-646.7156727579008 432 -267.87840265556247
-646.7156727579008 592 -267.87840265556247
-665.1932634081267 452 -275.53207130286427
-665.1932634081267 572 -275.53207130286427
-679.9753359283072 484 -281.6550062207057
-679.9753359283072 540 -281.6550062207057
-683.6708540583523 512 -283.185739950166
730.3989293123443 512 42.75550934302818
726.7829721398506 484 41.04528896930705
726.7829721398506 540 41.04528896930705
712.3191434498755 452 34.204407474422545
712.3191434498755 572 34.204407474422545
694.2393575874066 432 25.653305605816907
694.2393575874066 592 25.653305605816907
665.3117002074564 416 11.971542616047891
665.3117002074564 608 11.971542616047891
640.0 412 0.0
640.0 612 0.0
614.6882997925436 416 -11.971542616047891
614.6882997925436 608 -11.971542616047891
585.7606424125934 432 -25.653305605816907
585.7606424125934 592 -25.653305605816907
567.6808565501245 452 -34.204407474422545
567.6808565501245 572 -34.204407474422545
553.2170278601494 484 -41.04528896930705
553.2170278601494 540 -41.04528896930705
549.6010706876557 512 -42.75550934302818
-488.15421828665944 512 -230.87975045235217
-491.7701754591532 484 -232.5899708260733
-491.7701754591532 540 -232.5899708260733
-506.23400414912834 452 -239.43085232095783
-506.23400414912834 572 -239.43085232095783
-524.3137900115972 432 -247.98195418956345
-524.3137900115972 592 -247.98195418956345
-553.2414473915474 416 -261.6637171793325
-553.2414473915474 608 -261.6637171793325
-578.5531475990038 412 -273.63525979538036
-578.5531475990038 612 -273.63525979538036
-603.8648478064603 416 -285.60680241142825
-603.8648478064603 608 -285.60680241142825
-632.7925051864104 432 -299.2885654011973
-632.7925051864104 592 -299.2885654011973
-650.8722910488793 452 -307.8396672698029
-650.8722910488793 572 -307.8396672698029
-665.3361197388543 484 -314.6805487646874
-665.3361197388543 540 -314.6805487646874
-668.9520769113482 512 -316.39076913840853
728.1921264348355 512 47.13967368259976
724.6644413774421 484 45.25408673529577
724.6644413774421 540 45.25408673529577
710.5537011478684 452 37.71173894607981
710.5537011478684 572 37.71173894607981
692.9152758609013 432 28.283804209559857
692.9152758609013 592 28.283804209559857
664.693795401754 416 13.199108631127935
664.693795401754 608 13.199108631127935
640.0 412 0.0
640.0 612 0.0
615.306204598246 416 -13.199108631127935
615.306204598246 608 -13.199108631127935
587.0847241390987 432 -28.283804209559857
587.0847241390987 592 -28.283804209559857
569.4462988521316 452 -37.71173894607981
569.4462988521316 572 -37.71173894607981
555.3355586225579 484 -45.25408673529577
555.3355586225579 540 -45.25408673529577
551.8078735651645 512 -47.13967368259976
-476.23748274811174 512 -254.55423788603872
-479.76516780550514 484 -256.4398248333427
-479.76516780550514 540 -256.4398248333427
-493.87590803507885 452 -263.98217262255866
-493.87590803507885 572 -263.98217262255866
-511.51433332204596 432 -273.4101073590786
-511.51433332204596 592 -273.4101073590786
-539.7358137811933 416 -288.49480293751054
-539.7358137811933 608 -288.49480293751054
-564.4296091829473 412 -301.6939115686385
-564.4296091829473 612 -301.6939115686385
-589.1234045847011 416 -314.8930201997664
-589.1234045847011 608 -314.8930201997664
-617.3448850438485 432 -329.97771577819833
-617.3448850438485 592 -329.97771577819833
-634.9833103308156 452 -339.4056505147183
-634.9833103308156 572 -339.4056505147183
-649.0940505603893 484 -346.94799830393424
-649.0940505603893 540 -346.94799830393424
-652.6217356177827 512 -348.8335852512383
725.7728610000272 512 51.41027441932216
722.3419465600261 484 49.35386344254927
722.3419465600261 540 49.35386344254927
708.6182888000218 452 41.128219535457724
708.6182888000218 572 41.128219535457724
691.4637166000164 432 30.84616465159329
691.4637166000164 592 30.84616465159329
664.0164010800077 416 14.394876837410203
664.0164010800077 608 14.394876837410203
640.0 412 0.0
640.0 612 0.0
615.9835989199923 416 -14.394876837410203
615.9835989199923 608 -14.394876837410203
588.5362833999836 432 -30.84616465159329
588.5362833999836 592 -30.84616465159329
571.3817111999782 452 -41.128219535457724
571.3817111999782 572 -41.128219535457724
557.6580534399739 484 -49.35386344254927
557.6580534399739 540 -49.35386344254927
554.2271389999728 512 -51.41027441932216
-463.1734494001469 512 -277.61548186433964
-466.60436384014804 484 -279.67189284111254
-466.60436384014804 540 -279.67189284111254
-480.3280216001524 452 -287.89753674820406
-480.3280216001524 572 -287.89753674820406
-497.4825938001578 432 -298.1795916320685
-497.4825938001578 592 -298.1795916320685
-524.9299093201665 416 -314.6308794462516
-524.9299093201665 608 -314.6308794462516
-548.9463104001742 412 -329.0257562836618
-548.9463104001742 612 -329.0257562836618
-572.9627114801817 416 -343.420633121072
-572.9627114801817 608 -343.420633121072
-600.4100270001904 432 -359.8719209352551
-600.4100270001904 592 -359.8719209352551
-617.564599200196 452 -370.1539758191195
-617.564599200196 572 -370.1539758191195
-631.2882569602003 484 -378.37961972621105
-631.2882569602003 540 -378.37961972621105
-634.7191714002014 512 -380.43603070298394
723.1469612302545 512 55.55702330196023
719.8210827810443 484 53.33474236988182
719.8210827810443 540 53.33474236988182
706.5175689842036 452 44.44561864156818
706.5175689842036 572 44.44561864156818
689.8881767381528 432 33.334213981176134
689.8881767381528 592 33.334213981176134
663.2811491444712 416 15.555966524548865
663.2811491444712 608 15.555966524548865
640.0 412 0.0
640.0 612 0.0
616.7188508555288 416 -15.555966524548865
616.7188508555288 608 -15.555966524548865
590.1118232618472 432 -33.334213981176134
590.1118232618472 592 -33.334213981176134
573.4824310157964 452 -44.44561864156818
573.4824310157964 572 -44.44561864156818
560.1789172189557 484 -53.33474236988182
560.1789172189557 540 -53.33474236988182
556.8530387697455 512 -55.55702330196023
-448.99359064337443 512 -300.00792583058524
-452.3194690925846 484 -302.23020676266367
-452.3194690925846 540 -302.23020676266367
-465.6229828894253 452 -311.1193304909773
-465.6229828894253 572 -311.1193304909773
-482.25237513547626 432 -322.23073515136934
-482.25237513547626 592 -322.23073515136934
-508.8594027291577 416 -340.0089826079966
-508.8594027291577 608 -340.0089826079966
-532.140551873629 412 -355.56494913254545
-532.140551873629 612 -355.56494913254545
-555.4217010181002 416 -371.1209156570943
-555.4217010181002 608 -371.1209156570943
-582.0287286117816 432 -388.8991631137216
-582.0287286117816 592 -388.8991631137216
-598.6581208578326 452 -400.01056777411367
-598.6581208578326 572 -400.01056777411367
-611.9616346546733 484 -408.8996915024273
-611.9616346546733 540 -408.8996915024273
-615.2875131038835 512 -411.1219724345057
720.3207531480645 512 59.56993044924332
717.1079230221419 484 57.18713323127359
717.1079230221419 540 57.18713323127359
704.2566025184516 452 47.65594435939466
704.2566025184516 572 47.65594435939466
688.1924518888387 432 35.741958269546
688.1924518888387 592 35.741958269546
662.4898108814581 416 16.679580525788133
662.4898108814581 608 16.679580525788133
640.0 412 0.0
640.0 612 0.0
617.5101891185419 416 -16.679580525788133
617.5101891185419 608 -16.679580525788133
591.8075481111613 432 -35.741958269546
591.8075481111613 592 -35.741958269546
575.7433974815484 452 -47.65594435939466
575.7433974815484 572 -47.65594435939466
562.8920769778581 484 -57.18713323127359
562.8920769778581 540 -57.18713323127359
559.6792468519355 512 -59.56993044924332
-433.7320669995483 512 -321.67762442591396
-436.94489712547085 484 -324.06042164388367
-436.94489712547085 540 -324.06042164388367
-449.79621762916116 452 -333.5916105157626
-449.79621762916116 572 -333.5916105157626
-465.8603682587741 432 -345.5055966056113
-465.8603682587741 592 -345.5055966056113
-491.5630092661547 416 -364.56797434936914
-491.5630092661547 608 -364.56797434936914
-514.0528201476128 412 -381.2475548751573
-514.0528201476128 612 -381.2475548751573
-536.5426310290708 416 -397.9271354009454
-536.5426310290708 608 -397.9271354009454
-562.2452720364514 432 -416.98951314470327
-562.2452720364514 592 -416.98951314470327
-578.3094226660644 452 -428.90349923455193
-578.3094226660644 572 -428.90349923455193
-591.1607431697547 484 -438.4346881064309
-591.1607431697547 540 -438.4346881064309
-594.3735732956773 512 -440.8174853244006
717.3010453362738 512 63.439328416364525
714.2090035228227 484 60.901755279709946
714.2090035228227 540 60.901755279709946
701.840836269019 452 50.75146273309162
701.840836269019 572 50.75146273309162
686.3806272017642 432 38.06359704981872
686.3806272017642 592 38.06359704981872
661.6442926941567 416 17.76301195658207
661.6442926941567 608 17.76301195658207
640.0 412 0.0
640.0 612 0.0
618.3557073058433 416 -17.76301195658207
618.3557073058433 608 -17.76301195658207
593.6193727982358 432 -38.06359704981872
593.6193727982358 592 -38.06359704981872
578.159163730981 452 -50.75146273309162
578.159163730981 572 -50.75146273309162
565.7909964771773 484 -60.901755279709946
565.7909964771773 540 -60.901755279709946
562.6989546637262 512 -63.439328416364525
-417.42564481587806 512 -342.57237344836847
-420.517686629329 484 -345.109946585023
-420.517686629329 540 -345.109946585023
-432.88585388313277 452 -355.26023913164136
-432.88585388313277 572 -355.26023913164136
-448.34606295038753 432 -367.94810481491425
-448.34606295038753 592 -367.94810481491425
-473.0823974579951 416 -388.2486899081509
-473.0823974579951 608 -388.2486899081509
-494.7266901521517 412 -406.01170186473297
-494.7266901521517 612 -406.01170186473297
-516.3709828463084 416 -423.77471382131506
-516.3709828463084 608 -423.77471382131506
-541.107317353916 432 -444.0752989145517
-541.107317353916 592 -444.0752989145517
-556.5675264211707 452 -456.7631645978246
-556.5675264211707 572 -456.7631645978246
-568.9356936749745 484 -466.91345714444293
-568.9356936749745 540 -466.91345714444293
-572.0277354884255 512 -469.4510302810975
714.0951125354959 512 67.15589548470182
711.1313080340761 484 64.46965966531374
711.1313080340761 540 64.46965966531374
699.2760900283968 452 53.72471638776145
699.2760900283968 572 53.72471638776145
684.4570675212975 432 40.293537290821085
684.4570675212975 592 40.293537290821085
660.7466315099389 416 18.803650735716506
660.7466315099389 608 18.803650735716506
640.0 412 0.0
640.0 612 0.0
619.2533684900611 416 -18.803650735716506
619.2533684900611 608 -18.803650735716506
595.5429324787025 432 -40.293537290821085
595.5429324787025 592 -40.293537290821085
580.7239099716032 452 -53.72471638776145
580.7239099716032 572 -53.72471638776145
568.8686919659239 484 -64.46965966531374
568.8686919659239 540 -64.46965966531374
565.9048874645041 512 -67.15589548470182
-400.11360769167806 512 -362.6418356173898
-403.07741219309787 484 -365.32807143677786
-403.07741219309787 540 -365.32807143677786
-414.93263019877725 452 -376.07301471433016
-414.93263019877725 572 -376.07301471433016
-429.75165270587644 432 -389.5041938112705
-429.75165270587644 592 -389.5041938112705
-453.46208871723513 416 -410.9940803663751
-453.46208871723513 608 -410.9940803663751
-474.20872022717396 412 -429.7977311020916
-474.20872022717396 612 -429.7977311020916
-494.95535173711284 416 -448.6013818378081
-494.95535173711284 608 -448.6013818378081
-518.6657877484715 432 -470.0912683929127
-518.6657877484715 592 -470.0912683929127
-533.4848102555707 452 -483.52244748985305
-533.4848102555707 572 -483.52244748985305
-545.34002826125 484 -494.26739076740535
-545.34002826125 540 -494.26739076740535
-548.3038327626699 512 -496.9536265867934
710.7106781186548 512 70.71067811865474
707.8822509939085 484 67.88225099390856
707.8822509939085 540 67.88225099390856
696.5685424949238 452 56.5685424949238
696.5685424949238 572 56.5685424949238
682.4264068711929 432 42.426406871192846
682.4264068711929 592 42.426406871192846
659.7989898732234 416 19.798989873223327
659.7989898732234 608 19.798989873223327
640.0 412 0.0
640.0 612 0.0
620.2010101267766 416 -19.798989873223327
620.2010101267766 608 -19.798989873223327
597.5735931288071 432 -42.426406871192846
597.5735931288071 592 -42.426406871192846
583.4314575050762 452 -56.5685424949238
583.4314575050762 572 -56.5685424949238
572.1177490060915 484 -67.88225099390856
572.1177490060915 540 -67.88225099390856
569.2893218813452 512 -70.71067811865474
-381.83766184073573 512 -381.8376618407356
-384.66608896548195 484 -384.66608896548183
-384.66608896548195 540 -384.66608896548183
-395.9797974644667 452 -395.97979746446657
-395.9797974644667 572 -395.97979746446657
-410.12193308819764 432 -410.1219330881975
-410.12193308819764 592 -410.1219330881975
-432.74935008616717 416 -432.74935008616706
-432.74935008616717 608 -432.74935008616706
-452.54833995939055 412 -452.5483399593904
-452.54833995939055 612 -452.5483399593904
-472.34732983261387 416 -472.3473298326137
-472.34732983261387 608 -472.3473298326137
-494.9747468305834 432 -494.97474683058323
-494.9747468305834 592 -494.97474683058323
-509.11688245431435 452 -509.1168824543142
-509.11688245431435 572 -509.1168824543142
-520.4305909532991 484 -520.430590953299
-520.4305909532991 540 -520.430590953299
-523.2590180780453 512 -523.2590180780451
707.1558954847019 512 74.09511253549589
704.4696596653138 484 71.13130803407606
704.4696596653138 540 71.13130803407606
693.7247163877615 452 59.27609002839671
693.7247163877615 572 59.27609002839671
680.2935372908212 432 44.45706752129753
680.2935372908212 592 44.45706752129753
658.8036507357165 416 20.746631509938847
658.8036507357165 608 20.746631509938847
640.0 412 0.0
640.0 612 0.0
621.1963492642835 416 -20.746631509938847
621.1963492642835 608 -20.746631509938847
599.7064627091788 432 -44.45706752129753
599.7064627091788 592 -44.45706752129753
586.2752836122385 452 -59.27609002839671
586.2752836122385 572 -59.27609002839671
575.5303403346862 484 -71.13130803407606
575.5303403346862 540 -71.13130803407606
572.8441045152981 512 -74.09511253549589
-362.6418356173901 512 -400.11360769167777
-365.32807143677815 484 -403.07741219309764
-365.32807143677815 540 -403.07741219309764
-376.07301471433044 452 -414.93263019877696
-376.07301471433044 572 -414.93263019877696
-389.50419381127085 432 -429.75165270587615
-389.50419381127085 592 -429.75165270587615
-410.99408036637544 416 -453.46208871723485
-410.99408036637544 608 -453.46208871723485
-429.7977311020919 412 -474.20872022717367
-429.7977311020919 612 -474.20872022717367
-448.60138183780845 416 -494.95535173711255
-448.60138183780845 608 -494.95535173711255
-470.09126839291304 432 -518.6657877484712
-470.09126839291304 592 -518.6657877484712
-483.52244748985345 452 -533.4848102555704
-483.52244748985345 572 -533.4848102555704
-494.26739076740574 484 -545.3400282612497
-494.26739076740574 540 -545.3400282612497
-496.9536265867938 512 -548.3038327626696
703.4393284163646 512 77.30104533627372
700.90175527971 484 74.20900352282277
700.90175527971 540 74.20900352282277
690.7514627330916 452 61.84083626901898
690.7514627330916 572 61.84083626901898
678.0635970498187 432 46.380627201764234
678.0635970498187 592 46.380627201764234
657.7630119565821 416 21.644292694156643
657.7630119565821 608 21.644292694156643
640.0 412 0.0
640.0 612 0.0
622.2369880434179 416 -21.644292694156643
622.2369880434179 608 -21.644292694156643
601.9364029501813 432 -46.380627201764234
601.9364029501813 592 -46.380627201764234
589.2485372669084 452 -61.84083626901898
589.2485372669084 572 -61.84083626901898
579.09824472029 484 -74.20900352282277
579.09824472029 540 -74.20900352282277
576.5606715836354 512 -77.30104533627372
-342.5723734483684 512 -417.4256448158781
-345.10994658502295 484 -420.51768662932903
-345.10994658502295 540 -420.51768662932903
-355.2602391316413 452 -432.8858538831328
-355.2602391316413 572 -432.8858538831328
-367.9481048149142 432 -448.3460629503876
-367.9481048149142 592 -448.3460629503876
-388.2486899081508 416 -473.08239745799517
-388.2486899081508 608 -473.08239745799517
-406.0117018647329 412 -494.72669015215183
-406.0117018647329 612 -494.72669015215183
-423.77471382131495 416 -516.3709828463085
-423.77471382131495 608 -516.3709828463085
-444.0752989145516 432 -541.1073173539161
-444.0752989145516 592 -541.1073173539161
-456.7631645978245 452 -556.5675264211708
-456.7631645978245 572 -556.5675264211708
-466.9134571444428 484 -568.9356936749746
-466.9134571444428 540 -568.9356936749746
-469.4510302810974 512 -572.0277354884255
699.5699304492433 512 80.32075314806451
697.1871332312736 484 77.10792302214193
697.1871332312736 540 77.10792302214193
687.6559443593947 452 64.2566025184516
687.6559443593947 572 64.2566025184516
675.741958269546 432 48.192451888838704
675.741958269546 592 48.192451888838704
656.6795805257881 416 22.489810881458062
656.6795805257881 608 22.489810881458062
640.0 412 0.0
640.0 612 0.0
623.3204194742119 416 -22.489810881458062
623.3204194742119 608 -22.489810881458062
604.258041730454 432 -48.192451888838704
604.258041730454 592 -48.192451888838704
592.3440556406053 452 -64.2566025184516
592.3440556406053 572 -64.2566025184516
582.8128667687264 484 -77.10792302214193
582.8128667687264 540 -77.10792302214193
580.4300695507567 512 -80.32075314806451
-321.6776244259139 512 -433.73206699954835
-324.0604216438836 484 -436.9448971254709
-324.0604216438836 540 -436.9448971254709
-333.59161051576257 452 -449.7962176291612
-333.59161051576257 572 -449.7962176291612
-345.50559660561123 432 -465.86036825877414
-345.50559660561123 592 -465.86036825877414
-364.5679743493691 416 -491.5630092661548
-364.5679743493691 608 -491.5630092661548
-381.2475548751572 412 -514.0528201476128
-381.2475548751572 612 -514.0528201476128
-397.92713540094536 416 -536.5426310290709
-397.92713540094536 608 -536.5426310290709
-416.9895131447032 432 -562.2452720364515
-416.9895131447032 592 -562.2452720364515
-428.9034992345519 452 -578.3094226660644
-428.9034992345519 572 -578.3094226660644
-438.43468810643077 484 -591.1607431697547
-438.43468810643077 540 -591.1607431697547
-440.81748532440054 512 -594.3735732956774
695.5570233019603 512 83.14696123025448
693.3347423698818 484 79.8210827810443
693.3347423698818 540 79.8210827810443
684.4456186415682 452 66.51756898420358
684.4456186415682 572 66.51756898420358
673.3342139811762 432 49.88817673815269
673.3342139811762 592 49.88817673815269
655.5559665245489 416 23.281149144471254
655.5559665245489 608 23.281149144471254
640.0 412 0.0
640.0 612 0.0
624.4440334754511 416 -23.281149144471254
624.4440334754511 608 -23.281149144471254
606.6657860188238 432 -49.88817673815269
606.6657860188238 592 -49.88817673815269
595.5543813584318 452 -66.51756898420358
595.5543813584318 572 -66.51756898420358
586.6652576301182 484 -79.8210827810443
586.6652576301182 540 -79.8210827810443
584.4429766980397 512 -83.14696123025448
-300.0079258305856 512 -448.9935906433742
-302.230206762664 484 -452.31946909258437
-302.230206762664 540 -452.31946909258437
-311.11933049097763 452 -465.6229828894251
-311.11933049097763 572 -465.6229828894251
-322.2307351513697 432 -482.252375135476
-322.2307351513697 592 -482.252375135476
-340.008982607997 416 -508.8594027291574
-340.008982607997 608 -508.8594027291574
-355.5649491325459 412 -532.1405518736286
-355.5649491325459 612 -532.1405518736286
-371.12091565709477 416 -555.4217010181
-371.12091565709477 608 -555.4217010181
-388.89916311372207 432 -582.0287286117814
-388.89916311372207 592 -582.0287286117814
-400.0105677741141 452 -598.6581208578323
-400.0105677741141 572 -598.6581208578323
-408.8996915024278 484 -611.9616346546729
-408.8996915024278 540 -611.9616346546729
-411.1219724345062 512 -615.2875131038832
691.4102744193221 512 85.7728610000272
689.3538634425493 484 82.34194656002612
689.3538634425493 540 82.34194656002612
681.1282195354578 452 68.61828880002176
681.1282195354578 572 68.61828880002176
670.8461646515933 432 51.46371660001632
670.8461646515933 592 51.46371660001632
654.3948768374103 416 24.016401080007615
654.3948768374103 608 24.016401080007615
640.0 412 0.0
640.0 612 0.0
625.6051231625897 416 -24.016401080007615
625.6051231625897 608 -24.016401080007615
609.1538353484067 432 -51.46371660001632
609.1538353484067 592 -51.46371660001632
598.8717804645422 452 -68.61828880002176
598.8717804645422 572 -68.61828880002176
590.6461365574507 484 -82.34194656002612
590.6461365574507 540 -82.34194656002612
588.5897255806779 512 -85.7728610000272
-277.61548186433976 512 -463.17344940014686
-279.67189284111265 484 -466.604363840148
-279.67189284111265 540 -466.604363840148
-287.8975367482042 452 -480.32802160015234
-287.8975367482042 572 -480.32802160015234
-298.17959163206865 432 -497.48259380015776
-298.17959163206865 592 -497.48259380015776
-314.6308794462517 416 -524.9299093201664
-314.6308794462517 608 -524.9299093201664
-329.02575628366196 412 -548.9463104001741
-329.02575628366196 612 -548.9463104001741
-343.42063312107217 416 -572.9627114801817
-343.42063312107217 608 -572.9627114801817
-359.8719209352552 432 -600.4100270001904
-359.8719209352552 592 -600.4100270001904
-370.1539758191197 452 -617.5645992001959
-370.1539758191197 572 -617.5645992001959
-378.3796197262112 484 -631.2882569602002
-378.3796197262112 540 -631.2882569602002
-380.4360307029841 512 -634.7191714002013
687.1396736825998 512 88.1921264348355
685.2540867352958 484 84.66444137744207
685.2540867352958 540 84.66444137744207
677.7117389460798 452 70.5537011478684
677.7117389460798 572 70.5537011478684
668.2838042095599 432 52.915275860901296
668.2838042095599 592 52.915275860901296
653.199108631128 416 24.69379540175394
653.199108631128 608 24.69379540175394
640.0 412 0.0
640.0 612 0.0
626.800891368872 416 -24.69379540175394
626.800891368872 608 -24.69379540175394
611.7161957904401 432 -52.915275860901296
611.7161957904401 592 -52.915275860901296
602.2882610539202 452 -70.5537011478684
602.2882610539202 572 -70.5537011478684
594.7459132647042 484 -84.66444137744207
594.7459132647042 540 -84.66444137744207
592.8603263174002 512 -88.1921264348355
-254.55423788603883 512 -476.2374827481117
-256.4398248333428 484 -479.7651678055051
-256.4398248333428 540 -479.7651678055051
-263.9821726225588 452 -493.87590803507874
-263.9821726225588 572 -493.87590803507874
-273.4101073590788 432 -511.51433332204584
-273.4101073590788 592 -511.51433332204584
-288.4948029375107 416 -539.7358137811932
-288.4948029375107 608 -539.7358137811932
-301.6939115686386 412 -564.4296091829472
-301.6939115686386 612 -564.4296091829472
-314.89302019976657 416 -589.1234045847011
-314.89302019976657 608 -589.1234045847011
-329.9777157781985 432 -617.3448850438484
-329.9777157781985 592 -617.3448850438484
-339.40565051471845 452 -634.9833103308156
-339.40565051471845 572 -634.9833103308156
-346.9479983039344 484 -649.0940505603892
